NCOLS 60
NROWS 33
XLLCENTER 1500.
YLLCENTER 1500.
CELLSIZE 3000.
NODATA_VALUE 1.e30
1e+30 1e+30 1e+30 1e+30 1e+30 1e+30 1e+30 1e+30 1e+30 1e+30 1e+30 1e+30 1e+30 1e+30 99.636036 99.036337 98.10998 96.95655 95.62383 94.149456 92.587285 91.0508 89.83511 1e+30 1e+30 1e+30 1e+30 1e+30 1e+30 1e+30 1e+30 1e+30 1e+30 1e+30 1e+30 1e+30 1e+30 1e+30 1e+30 1e+30 1e+30 1e+30 1e+30 1e+30 1e+30 1e+30 1e+30 1e+30 1e+30 1e+30 1e+30 1e+30 1e+30 1e+30 1e+30 1e+30 1e+30 1e+30 1e+30 1e+30
1e+30 1e+30 1e+30 1e+30 1e+30 1e+30 1e+30 1e+30 1e+30 1e+30 102.35386 102.00345 101.42403 100.67478 99.785735 98.912922 97.887033 96.685834 95.315498 93.787268 92.11158 90.279978 88.169416 85.080173 82.310373 79.883125 78.140211 1e+30 1e+30 1e+30 1e+30 1e+30 1e+30 1e+30 1e+30 1e+30 1e+30 1e+30 1e+30 1e+30 1e+30 1e+30 1e+30 1e+30 1e+30 1e+30 1e+30 1e+30 1e+30 1e+30 1e+30 1e+30 1e+30 1e+30 1e+30 1e+30 1e+30 1e+30 1e+30 1e+30
1e+30 1e+30 1e+30 1e+30 1e+30 1e+30 1e+30 1e+30 1e+30 102.54377 102.25426 101.78252 101.14386 100.36459 99.469271 98.492601 97.389395 96.134236 94.715025 93.122545 91.341807 89.338111 87.032394 84.310718 81.517822 78.74877 75.947286 72.394834 69.846715 68.109315 66.967003 66.230915 65.804325 1e+30 1e+30 1e+30 1e+30 1e+30 1e+30 1e+30 1e+30 1e+30 1e+30 1e+30 1e+30 1e+30 1e+30 1e+30 1e+30 1e+30 1e+30 1e+30 1e+30 1e+30 1e+30 1e+30 1e+30 1e+30 1e+30 1e+30
1e+30 1e+30 1e+30 1e+30 1e+30 1e+30 1e+30 103.10835 102.80005 102.38328 101.88669 101.27843 100.55426 99.720382 98.784154 97.748799 96.593721 95.296734 93.837823 92.196054 90.344974 88.248255 85.861317 83.162466 80.251465 77.196895 74.05534 70.940508 68.586018 67.064223 66.11079 65.471454 64.92777 64.134211 63.584316 63.129498 62.72271 62.404456 1e+30 1e+30 1e+30 1e+30 1e+30 1e+30 1e+30 1e+30 1e+30 1e+30 1e+30 1e+30 1e+30 1e+30 1e+30 1e+30 1e+30 1e+30 1e+30 1e+30 1e+30 1e+30
1e+30 1e+30 1e+30 1e+30 1e+30 1e+30 103.30771 102.96664 102.45863 101.8527 101.18078 100.44023 99.624361 98.728503 97.748158 96.674724 95.489936 94.171143 92.693499 91.028887 89.143779 86.998642 84.552205 81.776363 78.67867 75.282007 71.686673 68.27583 66.042642 65.000752 64.490432 64.166275 63.851113 63.440551 63.039243 62.631468 62.18416 61.636186 60.764728 60.196499 1e+30 1e+30 1e+30 1e+30 1e+30 1e+30 1e+30 1e+30 1e+30 1e+30 1e+30 1e+30 1e+30 1e+30 1e+30 1e+30 1e+30 1e+30 1e+30 1e+30
1e+30 1e+30 1e+30 1e+30 1e+30 103.67074 103.19878 102.54156 101.76497 100.93805 100.09347 99.227314 98.324442 97.371102 96.355242 95.262007 94.070189 92.754406 91.286142 89.632194 87.752595 85.600302 83.122485 80.26213 76.954861 73.115817 68.683574 63.983511 61.857979 61.955747 62.233945 62.402072 62.419844 62.28763 62.050644 61.723007 61.296332 60.741394 60.011499 59.178273 57.935497 57.008358 56.3951 1e+30 1e+30 1e+30 1e+30 1e+30 1e+30 1e+30 1e+30 1e+30 1e+30 1e+30 1e+30 1e+30 1e+30 1e+30 1e+30 1e+30
1e+30 1e+30 1e+30 1e+30 104.33641 103.69269 102.82536 101.78584 100.67159 99.591032 98.577688 97.601083 96.624995 95.626212 94.589693 93.49787 92.324385 91.040135 89.6145 88.011186 86.184137 84.077521 81.62531 78.744799 75.312822 71.092805 65.498276 56.666667 55 58.280293 59.637562 60.338228 60.688558 60.789475 60.702683 60.463569 60.086788 59.571577 58.911628 58.1196 57.169869 56.244478 55.331837 54.243273 1e+30 1e+30 1e+30 1e+30 1e+30 1e+30 1e+30 1e+30 1e+30 1e+30 1e+30 1e+30 1e+30 1e+30 1e+30 1e+30
1e+30 1e+30 1e+30 105.30219 104.53013 103.48793 102.17406 100.65483 99.094488 97.726775 96.575155 95.524299 94.498211 93.469053 92.429433 91.365412 90.239376 89.017268 87.670536 86.163899 84.445233 82.450309 80.106447 77.328964 74.008858 69.994347 65.100052 59.372881 55 56.077854 57.247785 58.174725 58.756685 59.029038 59.05705 58.891781 58.565673 58.096501 57.493858 56.768656 55.929956 55.017932 53.9945 52.704735 50.814221 49.334565 48.086355 47.036577 46.292621 1e+30 1e+30 1e+30 1e+30 1e+30 1e+30 1e+30 1e+30 1e+30 1e+30 1e+30
1e+30 1e+30 106.40253 105.62425 104.54423 103.10482 101.2781 99.114889 96.874715 95.196402 94.021823 92.972726 91.924492 90.872348 89.843584 88.844972 87.800444 86.66903 85.43649 84.078642 82.53261 80.722059 78.571222 76.005757 72.949305 69.325663 65.08472 60.274812 55 53.333333 54.650995 55.906196 56.684409 57.062945 57.154701 57.030826 56.737623 56.304902 55.748655 55.081212 54.313377 53.452845 52.473531 51.316952 49.953387 48.65315 47.437937 46.280757 45.098631 43.522732 42.554148 1e+30 1e+30 1e+30 1e+30 1e+30 1e+30 1e+30 1e+30 1e+30
1e+30 107.33656 106.73081 105.79787 104.4677 102.659 100.2686 97.201918 93.643073 91.712292 90.893008 89.970284 88.904674 87.802273 86.777583 85.920434 84.998383 83.971915 82.877746 81.731582 80.434506 78.884103 77.000635 74.72353 72.006959 68.824285 65.188351 61.191666 57.057767 53.333333 51.666667 53.664657 54.561805 54.933623 55.017978 54.889198 54.599097 54.186837 53.664669 53.044179 52.339508 51.55657 50.679873 49.686191 48.579254 47.436766 46.281589 45.10002 43.848398 42.465421 41.135546 39.647419 1e+30 1e+30 1e+30 1e+30 1e+30 1e+30 1e+30 1e+30
1e+30 107.49231 106.93644 105.91872 104.41972 102.34486 99.485358 95.331111 88.333333 86.666667 87.417601 86.660721 85.471647 84.204502 83.094061 82.610817 81.850745 80.892507 79.921009 79.085431 78.139726 76.929227 75.373697 73.430787 71.080708 68.326176 65.202738 61.795727 58.256098 54.811137 51.666667 52.073963 52.514529 52.641758 52.644386 52.458882 52.13273 51.72868 51.229024 50.641351 49.993915 49.304075 48.553232 47.718719 46.790693 45.783068 44.701602 43.53942 42.279567 40.905063 39.425216 37.709295 35.464481 34.17847 1e+30 1e+30 1e+30 1e+30 1e+30 1e+30
1e+30 107.75388 107.15397 106.07091 104.4976 102.36537 99.546874 95.853827 91.177259 86.666667 85 83.333333 81.666667 80 78.333333 79.128027 78.451292 77.37638 76.378369 76.099412 75.659732 74.869386 73.684156 72.095216 70.108929 67.746966 65.05072 62.082404 58.909761 55.538475 51.666667 50 50.330587 50.024484 50.008919 49.719211 49.294264 48.916137 48.431401 47.848298 47.240747 46.662595 46.060286 45.394798 44.631774 43.753251 42.75232 41.626501 40.375359 39.000119 37.50094 35.850059 34.055694 32.442473 30.740592 1e+30 1e+30 1e+30 1e+30 1e+30
108.69703 108.16538 107.40463 106.26333 104.68442 102.62216 100.03297 96.910031 93.405212 90.093312 87.692729 85.578657 83.507767 81.263743 78.333333 76.666667 75 73.333333 71.666667 72.824115 73.080395 72.754418 71.948336 70.707004 69.062833 67.052044 64.720778 62.123421 59.312061 56.316325 53.140363 50 48.333333 46.666667 47.197591 46.664778 45.958978 45.760201 45.282154 44.629707 44.008199 43.595296 43.180545 42.718419 42.138388 41.395873 40.477955 39.388984 38.145266 36.769095 35.278382 33.684293 32.01577 30.345119 28.58871 26.652212 1e+30 1e+30 1e+30 1e+30
108.77869 108.35609 107.58589 106.44339 104.90463 102.95586 100.60287 97.898127 94.990216 92.158671 89.64896 87.330782 85.071989 82.763893 80.359814 78.291708 76.28999 74.184663 71.666667 70 70.633314 70.669551 70.197745 69.271646 67.933377 66.227602 64.206937 61.928448 59.448742 56.824414 54.128459 51.51892 49.249567 46.666667 45 43.333333 41.666667 42.43354 41.857297 40.930176 40.117053 40.079856 39.898195 39.709986 39.357509 38.763914 37.924646 36.856217 35.597635 34.202615 32.709203 31.142906 29.527987 27.88349 26.166917 24.265717 21.88408 20.64561 1e+30 1e+30
108.83292 108.44446 107.68947 106.56972 105.08491 103.24378 101.07453 98.63941 96.048867 93.452208 90.963678 88.57352 86.235511 83.910004 81.600324 79.40039 77.233625 74.998684 72.583281 70 68.333333 68.642739 68.451436 67.798446 66.721448 65.268058 63.500926 61.484713 59.280062 56.954147 54.580146 52.247663 50.029355 47.83637 45.896547 43.942022 41.666667 40 38.333333 36.666667 35 36.25889 36.172385 36.415816 36.367768 35.92767 35.1505 34.063608 32.736446 31.284537 29.762919 28.200145 26.619778 25.043908 23.479719 21.909669 20.290929 18.957193 17.59353 1e+30
108.82564 108.44943 107.70786 106.61109 105.17152 103.40984 101.36206 99.086099 96.663611 94.187626 91.730056 89.314107 86.936535 84.590329 82.281103 80.025894 77.795434 75.543122 73.2178 70.808431 68.333333 66.666667 66.716826 66.299239 65.435897 64.172268 62.594 60.779431 58.782661 56.681976 54.540316 52.412235 50.333822 48.302923 46.357796 44.421529 42.441996 40.61294 38.810717 36.996327 35 33.333333 31.666667 32.963134 33.320059 32.978484 32.236128 31.061295 29.549996 27.986165 26.40779 24.824971 23.25707 21.742675 20.348351 19.152284 17.962706 16.848643 15.779801 14.648489
108.74457 108.36979 107.63151 106.54531 105.13023 103.41203 101.4278 99.229341 96.881855 94.454627 92.004813 89.566318 87.156169 84.783693 82.457872 80.176616 77.929115 75.7106 73.486349 71.232587 68.949057 66.666667 65 64.795796 64.100633 62.941131 61.473389 59.806352 57.939181 56.000789 54.0369 52.07716 50.140783 48.23371 46.360189 44.494303 42.61685 40.749035 38.850253 37.057927 35.268467 33.565953 31.666667 30 30.520854 29.980051 29.304225 27.945456 25.966117 24.252344 22.607085 20.984884 19.390854 17.871407 16.568729 15.938454 15.108978 14.244901 13.578564 13.067151
108.58833 108.20364 107.45307 106.35846 104.94209 103.23022 101.25776 99.071641 96.729847 94.294182 91.818268 89.340207 86.888107 84.480395 82.140099 79.843622 77.583806 75.433861 73.334401 71.236545 69.113669 66.974248 65 63.333333 62.779714 61.568237 60.1021 58.583434 56.716923 54.895096 53.079349 51.268741 49.468451 47.680944 45.904951 44.12867 42.332079 40.466112 38.333333 36.666667 35 33.54536 31.832167 30 28.333333 26.666667 26.60527 25.000179 21.666667 20 18.333333 16.666667 15 13.333333 11.666667 12.473764 11.839875 10.993463 10.772406 10.524406
108.3668 107.9534 107.16869 106.04333 104.59947 102.859 100.85137 98.619596 96.221695 93.723966 91.18387 88.638157 86.125645 83.659694 81.328527 79.02399 76.678618 74.656648 72.730807 70.815544 68.844806 66.666667 65 63.333333 61.666667 60 58.333333 57.258359 55 53.333333 51.666667 50 48.333333 46.666667 45 43.333333 41.666667 40 38.333333 37.987809 35 33.333333 31.666667 30 28.333333 26.666667 25 23.333333 21.666667 22.655772 21.822168 20.312306 18.377267 15.82405 11.666667 10 8.3333333 6.6666667 7.5431801 7.2836333
108.10872 107.62451 106.77495 105.59673 104.10347 102.30492 100.21911 97.883692 95.363358 92.746096 90.105089 87.452948 84.866639 82.254171 80.040321 77.79525 75 73.333333 71.666667 70 68.333333 66.666667 65.774974 64.286461 62.56546 60.654506 58.333333 56.666667 55 53.687486 52.05917 50.335725 48.529765 46.666667 45 45.451672 44.822492 43.781245 42.597184 41.501251 39.737533 38.127455 36.545992 34.962202 33.371278 31.779021 30.203062 28.689516 27.371851 26.684277 25.537247 23.933117 21.922703 19.468913 16.554659 14.062813 11.217819 6.6666667 5 3.3333333
107.88485 107.21098 106.25988 105.01516 103.46276 101.5881 99.386416 96.882664 94.151948 91.341944 88.587424 85.75188 83.183791 80 78.333333 76.666667 75 74.448824 73.13796 71.560435 69.885218 68.212447 66.696753 65.022101 63.204223 61.269224 59.243813 57.400234 55.62276 53.907438 52.09681 50.303965 48.333333 46.666667 47.78777 48.200869 47.940378 47.255299 46.322899 45.232472 43.871428 42.442971 40.977657 39.481547 37.960564 36.425084 34.893716 33.399821 31.996946 30.722233 29.259423 27.510202 25.461511 23.124257 20.570248 18.028789 15.358446 12.508323 10.653941 9.5273735
1e+30 106.6247 105.58842 104.29128 102.69428 100.74829 98.405828 95.658583 92.569822 89.432297 86.700757 83.333333 81.666667 80 79.562218 78.409084 77.069229 75.873982 74.425929 72.768574 70.984656 69.151139 67.327508 65.450983 63.510106 61.524346 59.522467 57.617686 55.733372 53.772704 51.666667 50 48.333333 49.939938 50.833547 51.173648 51.032844 50.526667 49.756633 48.784305 47.622739 46.345353 44.990125 43.575772 42.114353 40.617045 39.096911 37.569124 36.043912 34.498306 32.818017 30.936775 28.838888 26.546353 24.123289 21.673649 19.228847 16.904238 15.130067 14.144861
1e+30 1e+30 104.72783 103.41722 101.8248 99.854953 97.379971 94.325966 90.586445 86.666667 85 83.333333 82.965556 81.977263 81.056428 79.888261 78.543854 77.10195 75.473199 73.65328 71.683688 69.629944 67.56115 65.49419 63.410872 61.345587 59.254015 57.364678 55.470344 53.333333 51.666667 52.699538 52.816544 53.476208 53.982824 54.177322 54.040673 53.611884 52.942654 52.07537 51.039872 49.875586 48.611733 47.267076 45.854043 44.381845 42.857765 41.28587 39.66129 37.959073 36.12759 34.130004 31.960932 29.648989 27.252894 24.863662 22.529026 20.299723 18.367166 17.327154
1e+30 1e+30 1e+30 102.37498 100.88273 99.016718 96.483145 93.228875 88.333333 86.666667 86.262853 85.274109 84.434935 83.437081 82.348018 81.093677 79.665958 78.066756 76.261615 74.237635 72.01685 69.673796 67.342951 65.10374 62.8436 60.743128 58.333333 56.666667 55 53.333333 54.966655 55.864942 56.3071 56.715521 56.994202 57.062131 56.890628 56.487524 55.876711 55.084637 54.135785 53.055388 51.864153 50.576775 49.202918 47.748539 46.216448 44.605299 42.906311 41.099116 39.153245 37.044712 34.77583 32.385777 29.92563 27.549082 25.273853 22.94848 20.261697 19.019426
1e+30 1e+30 1e+30 1e+30 99.864394 98.396041 95.857012 93.323012 90.511561 88.754807 87.660604 86.615363 85.612996 84.538085 83.354876 82.022445 80.509512 78.787485 76.818868 74.568794 72.02227 69.255438 66.58315 64.28422 61.666667 60 58.333333 58.943157 58.52877 58.092148 58.551676 59.036475 59.38139 59.634567 59.766322 59.736359 59.522176 59.120865 58.542027 57.800682 56.913246 55.896036 54.762724 53.522965 52.182334 50.742952 49.204211 47.562595 45.809533 43.92783 41.891571 39.669765 37.261908 34.742622 32.064773 29.683176 27.618782 25.508639 1e+30 1e+30
1e+30 1e+30 1e+30 1e+30 1e+30 1e+30 94.775829 93.244636 91.185062 89.73038 88.559377 87.463749 86.413571 85.297373 84.060958 82.681731 81.112145 79.304777 77.207581 74.746406 71.797989 68.292521 65 63.333333 61.666667 62.150205 61.800176 61.79385 61.629782 61.504805 61.661423 61.897881 62.0974 62.225016 62.250139 62.144783 61.89083 61.481724 60.91985 60.212829 59.370506 58.402816 57.31777 56.120046 54.810503 53.386747 51.844875 50.181341 48.391419 46.461125 44.365479 42.03087 39.409437 36.808045 33.457656 31.050097 29.55944 1e+30 1e+30 1e+30
1e+30 1e+30 1e+30 1e+30 1e+30 1e+30 1e+30 1e+30 90.803669 89.972285 88.932786 87.816693 86.83016 85.726896 84.459858 83.081367 81.502567 79.661903 77.510267 74.961261 71.680759 66.666667 65 65.32071 64.820125 64.683967 64.473312 64.352295 64.241699 64.185862 64.241331 64.346229 64.435313 64.467961 64.414441 64.251801 63.96464 63.545356 62.992828 62.310291 61.50315 60.57697 59.535508 58.378974 57.102904 55.698677 54.157247 52.476518 50.663688 48.70979 46.628331 44.228776 41.086882 39.172462 1e+30 1e+30 1e+30 1e+30 1e+30 1e+30
1e+30 1e+30 1e+30 1e+30 1e+30 1e+30 1e+30 1e+30 1e+30 1e+30 1e+30 87.590082 86.913469 85.870189 84.520211 83.231304 81.704851 79.880007 77.760312 75.457615 72.847141 70.027857 68.367713 67.679368 67.159165 66.842215 66.6068 66.450309 66.34884 66.305603 66.321809 66.360388 66.379655 66.347067 66.237861 66.033334 65.72056 65.292216 64.745799 64.08234 63.304826 62.416419 61.41836 60.30749 59.073521 57.697829 56.158875 54.453764 52.626995 50.636034 48.759272 46.719046 1e+30 1e+30 1e+30 1e+30 1e+30 1e+30 1e+30 1e+30
1e+30 1e+30 1e+30 1e+30 1e+30 1e+30 1e+30 1e+30 1e+30 1e+30 1e+30 1e+30 1e+30 1e+30 84.069482 83.168768 81.755525 79.942963 77.74337 75.811728 73.772343 71.779914 70.313631 69.419881 68.844944 68.468916 68.211356 68.043289 67.947735 67.915888 67.929905 67.943853 67.925847 67.852788 67.706602 67.473113 67.142061 66.707172 66.16585 65.518486 64.767418 63.915508 62.964005 61.909064 60.735836 59.410275 57.876688 56.10272 54.304499 51.998051 50.603644 1e+30 1e+30 1e+30 1e+30 1e+30 1e+30 1e+30 1e+30 1e+30
1e+30 1e+30 1e+30 1e+30 1e+30 1e+30 1e+30 1e+30 1e+30 1e+30 1e+30 1e+30 1e+30 1e+30 1e+30 1e+30 1e+30 1e+30 77.008476 75.823593 74.200588 72.555841 71.237019 70.391579 69.881819 69.527132 69.276402 69.113734 69.032908 69.030298 69.088066 69.109269 69.07709 68.981653 68.812659 68.560462 68.217407 67.778565 67.241946 66.608337 65.880862 65.064211 64.163146 63.178985 62.100514 60.880757 59.384876 57.325929 56.040218 1e+30 1e+30 1e+30 1e+30 1e+30 1e+30 1e+30 1e+30 1e+30 1e+30 1e+30
1e+30 1e+30 1e+30 1e+30 1e+30 1e+30 1e+30 1e+30 1e+30 1e+30 1e+30 1e+30 1e+30 1e+30 1e+30 1e+30 1e+30 1e+30 1e+30 1e+30 1e+30 1e+30 1e+30 70.577594 70.313597 70.031368 69.803367 69.652318 69.589846 69.63431 69.832786 69.878071 69.84159 69.734078 69.551917 69.288669 68.938546 68.497748 67.965051 67.342085 66.633524 65.84737 64.995409 64.093217 63.156481 62.177368 61.006137 1e+30 1e+30 1e+30 1e+30 1e+30 1e+30 1e+30 1e+30 1e+30 1e+30 1e+30 1e+30 1e+30
1e+30 1e+30 1e+30 1e+30 1e+30 1e+30 1e+30 1e+30 1e+30 1e+30 1e+30 1e+30 1e+30 1e+30 1e+30 1e+30 1e+30 1e+30 1e+30 1e+30 1e+30 1e+30 1e+30 1e+30 1e+30 1e+30 1e+30 1e+30 1e+30 1e+30 70.280708 70.278632 70.227126 70.111165 69.922291 69.653786 69.300394 68.858855 68.328433 67.711415 67.013755 66.246343 65.427916 64.591998 63.80485 63.216092 1e+30 1e+30 1e+30 1e+30 1e+30 1e+30 1e+30 1e+30 1e+30 1e+30 1e+30 1e+30 1e+30 1e+30
1e+30 1e+30 1e+30 1e+30 1e+30 1e+30 1e+30 1e+30 1e+30 1e+30 1e+30 1e+30 1e+30 1e+30 1e+30 1e+30 1e+30 1e+30 1e+30 1e+30 1e+30 1e+30 1e+30 1e+30 1e+30 1e+30 1e+30 1e+30 1e+30 1e+30 1e+30 1e+30 1e+30 1e+30 1e+30 1e+30 1e+30 1e+30 1e+30 1e+30 1e+30 1e+30 1e+30 1e+30 1e+30 1e+30 1e+30 1e+30 1e+30 1e+30 1e+30 1e+30 1e+30 1e+30 1e+30 1e+30 1e+30 1e+30 1e+30 1e+30
