NCOLS 180
NROWS 55
XLLCENTER 500
YLLCENTER 21500
CELLSIZE 1000.
NODATA_VALUE 1.e30
1e+30 1e+30 1e+30 1e+30 1e+30 1e+30 1e+30 1e+30 1e+30 102.48205 102.30678 102.10081 101.86062 101.58383 101.26935 100.91941 100.53573 100.11969 99.673162 99.19899 98.701423 98.186547 97.662597 97.139852 96.629804 96.14338 95.688504 95.268295 94.881297 94.522959 94.187293 93.868155 93.560024 93.258317 92.959463 92.660793 92.360412 92.057051 91.749906 91.438473 91.122482 90.801779 90.476264 90.145805 89.81022 89.46927 89.122648 88.769953 88.410693 88.044272 87.669978 87.286956 86.894197 86.490529 86.074613 85.644937 85.199829 84.737453 84.255844 83.752918 83.226495 82.674315 82.094041 81.483264 80.839517 80.16025 79.442816 78.684445 77.882196 77.032915 76.133169 75.179184 74.166742 73.091057 71.946666 70.727302 69.425836 68.03431 66.544279 64.947809 63.239748 61.421883 59.508746 57.530266 55.509519 53.333333 52.777778 53.276925 53.796474 54.308577 54.797067 55.241061 55.630459 55.963484 56.242427 56.471137 56.653849 56.794688 56.897488 56.965713 57.002454 57.010434 56.992041 56.949355 56.884184 56.798099 56.692469 56.568489 56.427207 56.269555 56.096362 55.908372 55.706261 55.490643 55.262074 55.021058 54.768039 54.503413 54.227516 53.940621 53.642929 53.334559 53.015565 52.685942 52.345576 51.994095 51.630655 51.253861 50.861729 50.451327 50.018668 49.558833 49.073562 48.582819 48.079202 47.535583 47.018451 46.53513 46.082881 45.658233 45.255128 44.847367 44.305621 43.855726 43.485799 43.231846 1e+30 1e+30 1e+30 1e+30 1e+30 1e+30 1e+30 1e+30 1e+30 1e+30 1e+30 1e+30 1e+30 1e+30 1e+30 1e+30 1e+30 1e+30 1e+30 1e+30 1e+30 1e+30 1e+30 1e+30 1e+30 1e+30 1e+30 1e+30 1e+30 1e+30 1e+30 1e+30 1e+30 1e+30
1e+30 1e+30 1e+30 1e+30 1e+30 1e+30 1e+30 1e+30 102.7568 102.60733 102.41902 102.19146 101.92444 101.61735 101.2698 100.88237 100.45579 99.990925 99.489256 98.953376 98.387662 97.799038 97.197737 96.597627 96.015439 95.468016 94.967518 94.517274 94.113114 93.746683 93.408408 93.089393 92.782259 92.481384 92.182686 91.883334 91.581465 91.275973 90.966304 90.652258 90.333822 90.011089 89.684158 89.35306 89.017721 88.677987 88.333624 87.984304 87.629601 87.268969 86.901735 86.527076 86.143992 85.751289 85.347584 84.931294 84.500639 84.053665 83.588263 83.102208 82.593173 82.058765 81.49654 80.903991 80.278583 79.617721 78.918756 78.178947 77.395443 76.565241 75.685122 74.751629 73.761019 72.709182 71.591618 70.403431 69.139443 67.79443 66.363701 64.844114 63.235859 61.544982 59.785941 57.982036 56.161356 54.361631 52.777778 52.222222 52.763582 53.318962 53.877432 54.385427 54.826843 55.201595 55.514335 55.7707 55.976203 56.135921 56.254431 56.335801 56.383617 56.40101 56.390701 56.355047 56.296082 56.215567 56.11503 55.995807 55.859071 55.705867 55.53713 55.353704 55.156354 54.945775 54.722596 54.487379 54.240619 53.982745 53.714111 53.434988 53.145567 52.845946 52.536124 52.215996 51.885305 51.54356 51.189954 50.823302 50.442045 50.044253 49.627895 49.191692 48.737678 48.272064 47.794853 47.305204 46.823785 46.359233 45.912713 45.481404 45.057984 44.62654 44.163765 43.725762 43.319819 42.927864 42.444636 42.138426 1e+30 1e+30 1e+30 1e+30 1e+30 1e+30 1e+30 1e+30 1e+30 1e+30 1e+30 1e+30 1e+30 1e+30 1e+30 1e+30 1e+30 1e+30 1e+30 1e+30 1e+30 1e+30 1e+30 1e+30 1e+30 1e+30 1e+30 1e+30 1e+30 1e+30 1e+30 1e+30
1e+30 1e+30 1e+30 1e+30 1e+30 1e+30 1e+30 1e+30 102.85628 102.72107 102.5205 102.27159 101.97835 101.64132 101.26014 100.83449 100.36411 99.848963 99.28956 98.687596 98.046803 97.374202 96.68168 95.98747 95.3163 94.695717 94.146279 93.670169 93.257196 92.892237 92.560247 92.248719 91.948245 91.652293 91.356555 91.058354 90.756109 90.449074 90.1371 89.82042 89.499437 89.174573 88.846193 88.514518 88.179587 87.841322 87.499553 87.154037 86.804429 86.45026 86.090917 85.725624 85.353399 84.973043 84.583131 84.181999 83.767749 83.338281 82.891318 82.424459 81.935214 81.421039 80.879357 80.307573 79.703088 79.063288 78.385532 77.667147 76.905401 76.097479 75.24044 74.331208 73.366543 72.34305 71.257196 70.105372 68.884082 67.590293 66.221991 64.77907 63.264585 61.686268 60.058015 58.400583 56.742228 55.124045 53.615139 52.222222 51.666667 52.276252 52.958266 53.546362 54.039878 54.451705 54.792609 55.071123 55.294342 55.468366 55.598518 55.689448 55.745203 55.769284 55.764703 55.734045 55.679527 55.603054 55.506277 55.390636 55.257402 55.107713 54.942589 54.76296 54.569676 54.363509 54.145157 53.915244 53.674317 53.422841 53.161194 52.889654 52.608409 52.317536 52.016997 51.706621 51.386094 51.054901 50.712308 50.357357 49.988912 49.605774 49.206979 48.792371 48.363393 47.922917 47.472953 47.016607 46.56224 46.115292 45.677316 45.246682 44.818878 44.387063 43.947137 43.513758 43.089884 42.665131 42.217615 41.782194 41.248803 40.918736 1e+30 1e+30 1e+30 1e+30 1e+30 1e+30 1e+30 1e+30 1e+30 1e+30 1e+30 1e+30 1e+30 1e+30 1e+30 1e+30 1e+30 1e+30 1e+30 1e+30 1e+30 1e+30 1e+30 1e+30 1e+30 1e+30 1e+30 1e+30 1e+30 1e+30
1e+30 1e+30 1e+30 1e+30 1e+30 1e+30 1e+30 103.22703 103.04121 102.85015 102.6203 102.34604 102.02607 101.65943 101.24495 100.78134 100.26722 99.701249 99.082423 98.41064 97.687746 96.919285 96.11731 95.304273 94.516565 93.802252 93.201697 92.709918 92.303258 91.954815 91.641633 91.346954 91.059665 90.772975 90.482929 90.187414 89.885516 89.577094 89.262614 88.942906 88.618933 88.29158 87.961534 87.629207 87.294747 86.958118 86.619204 86.277842 85.933799 85.58671 85.236045 84.881095 84.520927 84.154347 83.779897 83.395818 83.000073 82.590378 82.16425 81.719075 81.252164 80.760798 80.242261 79.693852 79.112906 78.4968 77.84293 77.148707 76.411542 75.628836 74.797951 73.916212 72.980905 71.989309 70.938764 69.826781 68.651233 67.410691 66.104928 64.735605 63.307111 61.827488 60.309274 58.770074 57.232938 55.727176 54.286499 52.928214 51.666667 51.111111 52.083012 52.751868 53.284592 53.722728 54.083266 54.376839 54.611676 54.794687 54.931833 55.028276 55.088466 55.116218 55.114778 55.086901 55.034925 54.960847 54.86639 54.753059 54.622191 54.474989 54.312548 54.13587 53.945881 53.743429 53.529281 53.304126 53.068567 52.823111 52.568165 52.304027 52.030885 51.7488 51.457709 51.157412 50.84756 50.52765 50.197025 49.854911 49.500474 49.132954 48.751887 48.357429 47.950612 47.533253 47.107438 46.676044 46.243286 45.812382 45.384568 44.959123 44.533769 44.10568 43.673938 43.242222 42.810862 42.375158 41.928514 41.47392 40.995476 40.53864 39.990476 39.664955 1e+30 1e+30 1e+30 1e+30 1e+30 1e+30 1e+30 1e+30 1e+30 1e+30 1e+30 1e+30 1e+30 1e+30 1e+30 1e+30 1e+30 1e+30 1e+30 1e+30 1e+30 1e+30 1e+30 1e+30 1e+30 1e+30 1e+30 1e+30
1e+30 1e+30 1e+30 1e+30 1e+30 1e+30 103.50858 103.36285 103.18139 102.96807 102.71454 102.41618 102.07046 101.67538 101.22888 100.72869 100.17217 99.556394 98.878238 98.134791 97.324249 96.44787 95.513991 94.545746 93.593433 92.745015 92.098326 91.614534 91.241102 90.932102 90.654544 90.387818 90.120495 89.846972 89.564759 89.27291 88.971453 88.661167 88.343355 88.019665 87.691811 87.361286 87.02917 86.696047 86.362075 86.027188 85.691292 85.354326 85.016211 84.676728 84.335461 83.991788 83.644848 83.293501 82.936263 82.571281 82.196328 81.808886 81.406209 80.985409 80.543554 80.077716 79.58502 79.06265 78.507883 77.918078 77.290676 76.623199 75.913221 75.158364 74.356307 73.504772 72.601545 71.644524 70.6318 69.561775 68.433383 67.246319 66.001455 64.701348 63.350778 61.957279 60.531522 59.087495 57.642286 56.21523 54.825459 53.487471 52.222746 51.111111 51.460795 52.043498 52.573889 53.021345 53.390885 53.691291 53.930838 54.11688 54.255859 54.353361 54.414171 54.442346 54.441291 54.413855 54.362425 54.289021 54.195378 54.083021 53.953315 53.807505 53.646739 53.472088 53.284548 53.085041 52.874411 52.653414 52.422715 52.18287 51.934326 51.677407 51.412304 51.139077 50.85764 50.567768 50.269095 49.961123 49.643248 49.3148 48.975123 48.623678 48.260194 47.88485 47.498378 47.102043 46.697495 46.286831 45.872483 45.456392 45.039457 44.621472 44.201386 43.777963 43.350716 42.920279 42.486163 42.046101 41.597378 41.139478 40.670568 40.19986 39.717832 39.289394 38.858403 1e+30 1e+30 1e+30 1e+30 1e+30 1e+30 1e+30 1e+30 1e+30 1e+30 1e+30 1e+30 1e+30 1e+30 1e+30 1e+30 1e+30 1e+30 1e+30 1e+30 1e+30 1e+30 1e+30 1e+30 1e+30 1e+30 1e+30
1e+30 1e+30 1e+30 1e+30 1e+30 1e+30 103.60431 103.48441 103.30342 103.0762 102.8036 102.48371 102.11423 101.69274 101.21652 100.68236 100.08638 99.423914 98.689343 97.876036 96.976589 95.983946 94.895025 93.721273 92.5164 91.436042 90.782066 90.358782 90.064523 89.827923 89.606592 89.379251 89.137542 88.879668 88.606192 88.317997 88.016253 87.702776 87.379971 87.050586 86.717336 86.382549 86.047792 85.713738 85.380325 85.04727 84.714449 84.381967 84.049991 83.718527 83.387292 83.055764 82.723199 82.388558 82.050383 81.706708 81.355069 80.992623 80.616266 80.222772 79.8089 79.371471 78.90742 78.413819 77.887873 77.326934 76.728496 76.090192 75.40977 74.685095 73.914145 73.095021 72.225976 71.305444 70.332142 69.305178 68.224221 67.089739 65.903229 64.667582 63.387412 62.069328 60.722027 59.356102 57.983474 56.616016 55.262635 53.923462 52.575743 51.111111 50.555556 51.337435 51.896118 52.347872 52.717637 53.016601 53.253513 53.436143 53.571368 53.665142 53.722516 53.747707 53.744187 53.714803 53.661899 53.587431 53.49308 53.380333 53.250545 53.104975 52.944815 52.771193 52.585179 52.387774 52.179903 51.962401 51.736004 51.501328 51.258863 51.008969 50.751853 50.487568 50.216013 49.93693 49.649932 49.354504 49.050046 48.735927 48.411552 48.076447 47.730369 47.373401 47.006012 46.629051 46.243672 45.851294 45.453406 45.051223 44.645386 44.235912 43.822339 43.404061 42.98068 42.55201 42.117424 41.675672 41.225399 40.766012 40.297472 39.822387 39.341638 38.866374 38.377392 37.857876 1e+30 1e+30 1e+30 1e+30 1e+30 1e+30 1e+30 1e+30 1e+30 1e+30 1e+30 1e+30 1e+30 1e+30 1e+30 1e+30 1e+30 1e+30 1e+30 1e+30 1e+30 1e+30 1e+30 1e+30 1e+30 1e+30
1e+30 1e+30 1e+30 1e+30 1e+30 103.90921 103.76994 103.61719 103.42169 103.17971 102.88999 102.55082 102.16 101.71484 101.21211 100.64783 100.01707 99.313538 98.52918 97.653415 96.672127 95.566299 94.310874 92.877909 91.264849 89.650673 89.185107 88.924 88.78027 88.658475 88.514664 88.335042 88.120734 87.877982 87.612358 87.326602 87.022768 86.703703 86.37316 86.035364 85.694413 85.353774 85.015692 84.680762 84.348201 84.017103 83.68725 83.359087 83.033256 82.710078 82.389396 82.070766 81.753629 81.437164 81.12002 80.800111 80.474637 80.140288 79.793471 79.430513 79.047795 78.641842 78.209373 77.747318 77.252829 76.723261 76.156163 75.549289 74.900567 74.2081 73.470159 72.685202 71.85189 70.969134 70.03615 69.052588 68.018633 66.935213 65.804143 64.628337 63.411982 62.160634 60.881159 59.581407 58.269504 56.95272 55.635615 54.317987 52.995652 51.681237 50.555556 50.804566 51.27527 51.706387 52.065186 52.353965 52.580473 52.752815 52.878333 52.963325 53.013045 53.031775 53.022944 52.989271 52.932933 52.855721 52.759174 52.644682 52.513549 52.367032 52.206351 52.032692 51.847203 51.650973 51.445023 51.230283 51.007566 50.777563 50.540828 50.297755 50.048574 49.793337 49.531917 49.264025 48.989214 48.706922 48.416511 48.117315 47.808714 47.490195 47.161436 46.822372 46.473217 46.114467 45.746855 45.371267 44.988627 44.599701 44.204937 43.804429 43.39798 42.985253 42.565918 42.139634 41.705848 41.263766 40.812547 40.351669 39.880915 39.400544 38.909952 38.407088 37.876897 37.288342 36.558813 36.135353 1e+30 1e+30 1e+30 1e+30 1e+30 1e+30 1e+30 1e+30 1e+30 1e+30 1e+30 1e+30 1e+30 1e+30 1e+30 1e+30 1e+30 1e+30 1e+30 1e+30 1e+30 1e+30 1e+30 1e+30
1e+30 1e+30 1e+30 1e+30 1e+30 103.99847 103.89894 103.74281 103.53646 103.28096 102.97582 102.6196 102.21011 101.74451 101.21923 100.6298 99.970516 99.233992 98.410423 97.486307 96.442198 95.248239 93.85425 92.164643 89.964419 86.666667 87.333682 87.321832 87.424083 87.461041 87.408521 87.27553 87.082361 86.849143 86.588671 86.303302 85.994525 85.666122 85.323626 84.973288 84.62117 84.272452 83.93044 83.595405 83.264595 82.935676 82.608343 82.283863 81.963863 81.649146 81.339442 81.034261 80.733361 80.436432 80.142417 79.849061 79.553061 79.250411 78.936819 78.608014 78.259923 77.888727 77.490914 77.063267 76.602872 76.107101 75.573589 75.000212 74.38509 73.726561 73.023183 72.27374 71.47726 70.633046 69.74074 68.800386 67.812539 66.778372 65.699819 64.57965 63.421548 62.230084 61.0106 59.768856 58.510415 57.239753 55.959127 54.667229 53.357634 52.012623 50.555556 50 50.644008 51.087217 51.432755 51.7036 51.9116 52.066313 52.175822 52.24678 52.28456 52.2934 52.276535 52.236398 52.174838 52.093341 51.993208 51.875666 51.741934 51.593249 51.430859 51.256019 51.069964 50.873892 50.668936 50.456135 50.236408 50.010532 49.779129 49.542652 49.301354 49.055291 48.804304 48.54804 48.28598 48.017465 47.741764 47.458116 47.165797 46.864189 46.552825 46.231446 45.900022 45.558744 45.207997 44.84828 44.480128 44.104009 43.720223 43.32887 42.929872 42.523029 42.108093 41.684747 41.252549 40.810954 40.359353 39.897186 39.423943 38.938921 38.4405 37.925115 37.384775 36.809779 36.202727 35.661847 35.114194 1e+30 1e+30 1e+30 1e+30 1e+30 1e+30 1e+30 1e+30 1e+30 1e+30 1e+30 1e+30 1e+30 1e+30 1e+30 1e+30 1e+30 1e+30 1e+30 1e+30 1e+30 1e+30 1e+30
1e+30 1e+30 1e+30 1e+30 1e+30 104.13741 104.03447 103.8687 103.65042 103.38186 103.06275 102.69164 102.26632 101.78385 101.24051 100.63162 99.9512 99.191496 98.342211 97.389188 96.312113 95.080192 93.643236 91.911994 89.711506 86.666667 86.111111 85.555556 86.083185 86.303094 86.33285 86.226179 86.034062 85.797561 85.539878 85.253401 84.935894 84.592602 84.231949 83.863005 83.494538 83.134436 82.788223 82.455834 82.129102 81.802678 81.476592 81.154171 80.839168 80.53319 80.234972 79.943478 79.65912 79.38278 79.114145 78.85066 78.588124 78.321452 78.045357 77.754794 77.445134 77.112207 76.752266 76.361953 75.938296 75.478695 74.980873 74.442869 73.863004 73.239857 72.572267 71.859317 71.100371 70.295072 69.443391 68.545684 67.602762 66.615945 65.587143 64.518921 63.414477 62.27756 61.112323 59.92302 58.713534 57.486751 56.243914 54.984187 53.705045 52.406057 51.110255 50 50.163542 50.515716 50.825017 51.06608 51.246012 51.37501 51.461853 51.513405 51.535008 51.530719 51.503392 51.454941 51.386671 51.299592 51.194646 51.072832 50.935266 50.783163 50.617814 50.440556 50.252738 50.055694 49.850698 49.638921 49.421402 49.199026 48.972509 48.742373 48.508912 48.272177 48.031972 47.78786 47.539199 47.285198 47.024964 46.757582 46.48217 46.197933 45.904223 45.600563 45.286681 44.9625 44.628106 44.283711 43.929585 43.565977 43.193069 42.81094 42.419576 42.01887 41.608649 41.188677 40.75864 40.318128 39.866678 39.403762 38.928746 38.44068 37.937989 37.418071 36.877277 36.313249 35.730486 35.1451 34.516511 33.748555 33.307331 1e+30 1e+30 1e+30 1e+30 1e+30 1e+30 1e+30 1e+30 1e+30 1e+30 1e+30 1e+30 1e+30 1e+30 1e+30 1e+30 1e+30 1e+30 1e+30 1e+30 1e+30
1e+30 1e+30 1e+30 1e+30 104.47585 104.32938 104.18274 103.99711 103.76467 103.48334 103.15169 102.76791 102.32969 101.83406 101.27735 100.65497 99.961158 99.188575 98.327736 97.366113 96.286872 95.067176 93.676508 92.078581 90.252945 88.306498 86.971742 85.555556 85 85.285292 85.343614 85.212275 84.98014 84.717176 84.469893 84.18455 83.853088 83.486455 83.098556 82.702228 82.309513 81.932497 81.582155 81.26058 80.94327 80.619313 80.291136 79.967057 79.655447 79.359477 79.073786 78.795582 78.526876 78.271436 78.030711 77.801304 77.577323 77.351911 77.118351 76.870658 76.603618 76.312709 75.993974 75.643959 75.259656 74.838505 74.378348 73.877396 73.334192 72.747585 72.116693 71.440894 70.71984 69.953489 69.142082 68.286223 67.386892 66.445503 65.463912 64.444449 63.389898 62.303363 61.188126 60.047393 58.883963 57.699796 56.495595 55.270562 54.022312 52.746306 51.429399 50 49.444444 49.937087 50.235515 50.439686 50.581353 50.675854 50.733165 50.759962 50.761335 50.741064 50.701361 50.643291 50.567304 50.473704 50.362941 50.235745 50.09313 49.936319 49.766675 49.585646 49.394734 49.195449 48.989244 48.777452 48.56126 48.341674 48.119524 47.895428 47.669747 47.442541 47.213555 46.982233 46.747767 46.509164 46.265319 46.015091 45.757376 45.491158 45.215563 44.929891 44.633631 44.326453 44.008205 43.67887 43.338509 42.987223 42.62511 42.252231 41.868602 41.474191 41.068918 40.652645 40.225169 39.786215 39.335441 38.872414 38.396561 37.907053 37.402681 36.881885 36.343003 35.78541 35.210826 34.621548 34.008179 33.371804 32.816043 32.265667 1e+30 1e+30 1e+30 1e+30 1e+30 1e+30 1e+30 1e+30 1e+30 1e+30 1e+30 1e+30 1e+30 1e+30 1e+30 1e+30 1e+30 1e+30 1e+30 1e+30
1e+30 1e+30 1e+30 1e+30 104.57233 104.47174 104.32006 104.12233 103.87782 103.58517 103.24276 102.84864 102.40046 101.89536 101.32986 100.69975 99.999881 99.22391 98.364039 97.410639 96.352087 95.17513 93.86703 92.422876 90.865198 89.284616 87.863792 86.453475 85 84.444444 84.494035 84.249175 83.907049 83.571102 83.387962 83.111813 82.755438 82.351577 81.9236 81.487855 81.05881 80.653903 80.297338 80.011079 79.714095 79.390196 79.051585 78.717466 78.406079 78.125471 77.855088 77.588166 77.331334 77.095381 76.885968 76.696528 76.517969 76.340535 76.155491 75.955852 75.735954 75.491036 75.216982 74.91025 74.567853 74.187309 73.766613 73.304182 72.798804 72.249607 71.656016 71.01771 70.334617 69.606963 68.835243 68.02025 67.163106 66.265272 65.32856 64.3551 63.347327 62.30788 61.239429 60.144487 59.025161 57.882875 56.718098 55.530159 54.317341 53.077468 51.811042 50.540845 49.444444 49.502672 49.690267 49.825786 49.913848 49.963876 49.984977 49.981932 49.959285 49.920824 49.867684 49.799548 49.715543 49.614975 49.497665 49.364071 49.215181 49.052309 48.876926 48.690623 48.495105 48.292124 48.083373 47.870389 47.654514 47.436891 47.218496 47.000085 46.782123 46.564699 46.347487 46.129763 45.910481 45.688376 45.462053 45.230085 44.991084 44.743763 44.48699 44.219812 43.941488 43.651468 43.349386 43.035038 42.708336 42.369276 42.017896 41.65425 41.278389 40.890357 40.490161 40.077781 39.653137 39.216092 38.766441 38.303884 37.828012 37.338236 36.833784 36.313762 35.777409 35.224546 34.655838 34.072056 33.47281 32.864442 32.269356 31.665271 31.031476 1e+30 1e+30 1e+30 1e+30 1e+30 1e+30 1e+30 1e+30 1e+30 1e+30 1e+30 1e+30 1e+30 1e+30 1e+30 1e+30 1e+30 1e+30 1e+30
1e+30 1e+30 1e+30 1e+30 104.71926 104.61528 104.45347 104.24435 103.98915 103.68678 103.33554 102.93344 102.47816 101.96705 101.39698 100.7643 100.0647 99.293153 98.443859 97.510301 96.485704 95.364219 94.143588 92.830683 91.450366 90.052975 88.695331 87.344553 85.957942 84.444444 83.888889 83.333333 82.777778 82.222222 82.34904 82.069309 81.655278 81.190815 80.706411 80.216783 79.733975 79.276967 78.892208 78.722302 78.461831 78.125781 77.757554 77.395155 77.075945 76.831251 76.582932 76.320678 76.064919 75.842782 75.671235 75.530847 75.407466 75.286739 75.157235 75.011308 74.843307 74.64848 74.422654 74.162221 73.864211 73.526266 73.146602 72.723896 72.257234 71.746046 71.190067 70.589298 69.943958 69.254509 68.521679 67.746442 66.930029 66.073948 65.179962 64.250076 63.286464 62.291427 61.267234 60.21597 59.139342 58.038486 56.913771 55.764635 54.589425 53.385182 52.146462 50.8579 49.444444 48.888889 49.147088 49.209339 49.234366 49.230811 49.210919 49.173484 49.123032 49.065249 48.998988 48.92166 48.830335 48.722981 48.598673 48.457692 48.301215 48.130809 47.948098 47.754825 47.552951 47.34458 47.131746 46.916231 46.699518 46.482888 46.267489 46.054297 45.843961 45.636641 45.431923 45.228842 45.02602 44.821812 44.614443 44.40212 44.183117 43.955826 43.718819 43.470887 43.211045 42.938537 42.652819 42.353541 42.040502 41.713623 41.372917 41.018455 40.650334 40.268672 39.873578 39.465157 39.043478 38.608539 38.160307 37.698647 37.223348 36.734075 36.230425 35.711941 35.17831 34.629499 34.065886 33.487999 32.896529 32.293768 31.681627 31.044554 30.347671 29.496747 29.014583 1e+30 1e+30 1e+30 1e+30 1e+30 1e+30 1e+30 1e+30 1e+30 1e+30 1e+30 1e+30 1e+30 1e+30 1e+30 1e+30 1e+30
1e+30 1e+30 1e+30 105.08556 104.92019 104.76669 104.58421 104.3625 104.09767 103.78727 103.42921 103.02142 102.56171 102.0477 101.47671 100.84576 100.15146 99.390148 98.557933 97.650991 96.666217 95.602446 94.462431 93.255907 92.002585 90.7316 89.470003 88.221475 86.992762 85.831794 84.978695 84.20391 83.370365 82.222222 81.666667 81.111111 80.555556 80 79.444444 78.888889 78.333333 77.777778 77.222222 77.474089 77.235148 76.843546 76.407687 75.979642 75.62128 75.490649 75.274711 74.996683 74.714887 74.489597 74.375348 74.298157 74.244321 74.191711 74.125385 74.038818 73.927486 73.786928 73.612913 73.401749 73.150499 72.856966 72.519638 72.137558 71.710173 71.237274 70.718932 70.155464 69.547399 68.895443 68.200534 67.463818 66.686635 65.870539 65.017283 64.128777 63.207048 62.254156 61.272132 60.262824 59.227754 58.167971 57.0839 55.975198 54.840544 53.677377 52.481718 51.249852 49.996306 48.888889 48.749855 48.580108 48.533457 48.464074 48.404386 48.328035 48.244088 48.168136 48.091348 48.007763 47.911159 47.797934 47.666349 47.516812 47.351191 47.171625 46.979835 46.777632 46.567307 46.351514 46.132813 45.913286 45.694461 45.477669 45.264283 45.055654 44.852788 44.655992 44.46472 44.277652 44.09293 43.908395 43.721779 43.530833 43.333424 43.127584 42.911567 42.683874 42.443273 42.188816 41.919814 41.635797 41.336489 41.02178 40.691679 40.346296 39.985795 39.610387 39.220309 38.815788 38.397044 37.964262 37.517567 37.05702 36.58262 36.094279 35.591871 35.075247 34.544349 33.99925 33.440188 32.867488 32.281496 31.682441 31.068813 30.433604 29.767889 29.077951 28.482379 27.898092 1e+30 1e+30 1e+30 1e+30 1e+30 1e+30 1e+30 1e+30 1e+30 1e+30 1e+30 1e+30 1e+30 1e+30 1e+30 1e+30
1e+30 1e+30 105.31372 105.20094 105.0593 104.89709 104.70422 104.4738 104.20179 103.88545 103.52262 103.11132 102.64957 102.13534 101.56642 100.94054 100.25523 99.508046 98.696718 97.819493 96.875734 95.866897 94.797763 93.677922 92.522496 91.350821 90.181626 89.028579 87.90983 86.861264 85.940197 85.08326 84.227547 83.344043 82.636057 81.991112 81.371892 80.763219 80.156217 79.541375 78.900181 78.182083 77.222222 76.666667 76.111111 75.555556 75 74.444444 73.888889 74.185364 73.978577 73.626456 73.258342 72.975361 72.992393 72.992109 73.029934 73.060396 73.063781 73.041088 72.99087 72.908842 72.790327 72.631366 72.429052 72.181459 71.887456 71.546533 71.158622 70.723935 70.242927 69.716245 69.144724 68.529335 67.871211 67.171663 66.432159 65.654309 64.839871 63.990717 63.108791 62.196037 61.254342 60.28546 59.290885 58.27174 57.228676 56.161737 55.070186 53.952071 52.803181 51.613489 50.352037 48.888889 48.333333 47.777778 47.805273 47.637632 47.564505 47.440171 47.307137 47.221845 47.140493 47.056871 46.958605 46.841248 46.70199 46.542014 46.365117 46.174676 45.972005 45.758575 45.537145 45.311366 45.084726 44.859653 44.637392 44.419065 44.206344 44.001269 43.805552 43.619827 43.443317 43.274118 43.109646 42.947045 42.783427 42.616 42.442158 42.259516 42.065976 41.859741 41.639346 41.403651 41.151831 40.883341 40.597875 40.29532 39.975717 39.639237 39.286141 38.916761 38.531458 38.130625 37.714643 37.283876 36.838649 36.379223 35.905801 35.418528 34.917507 34.402824 33.874583 33.332937 32.77809 32.210255 31.629512 31.03564 30.427561 29.803137 29.162304 28.514783 27.888876 27.263782 26.620175 1e+30 1e+30 1e+30 1e+30 1e+30 1e+30 1e+30 1e+30 1e+30 1e+30 1e+30 1e+30 1e+30 1e+30 1e+30
1e+30 1e+30 105.3765 105.29524 105.16903 105.00821 104.81179 104.57672 104.30025 103.98015 103.61453 103.20167 102.73992 102.22764 101.66313 101.04475 100.37088 99.6401 98.851403 98.004504 97.100329 96.14165 95.133827 94.085509 93.008654 91.917578 90.82709 89.751396 88.70672 87.713243 86.787578 85.911387 85.062524 84.240337 83.492398 82.795389 82.127683 81.474755 80.82582 80.170209 79.493933 78.778156 78.01696 77.36188 76.739392 76.121448 75.485767 74.787644 73.888889 73.333333 72.777778 72.222222 71.666667 71.111111 71.576754 71.597946 71.772913 71.906157 71.978245 72.020894 72.036056 72.017233 71.958175 71.854342 71.702887 71.50234 71.252183 70.952519 70.603853 70.206917 69.762592 69.271885 68.735919 68.155949 67.533314 66.869476 66.166029 65.424672 64.647188 63.83545 62.991369 62.116859 61.213761 60.28382 59.328604 58.349437 57.347322 56.322905 55.276406 54.207547 53.115449 51.998894 50.859477 49.725104 48.809299 47.777778 47.222222 46.666667 46.725821 46.510997 46.272437 46.221608 46.141906 46.07062 45.975138 45.856459 45.708354 45.534147 45.342605 45.139967 44.924943 44.697532 44.461351 44.222091 43.985093 43.75323 43.526407 43.304875 43.09077 42.887532 42.698322 42.52444 42.364607 42.21586 42.0745 41.936721 41.798878 41.657578 41.509681 41.352345 41.183076 40.99976 40.800696 40.584584 40.35051 40.097874 39.826362 39.535906 39.226625 38.898789 38.552767 38.189036 37.808128 37.410594 36.997014 36.567948 36.123919 35.665401 35.192818 34.706513 34.206798 33.693944 33.168198 32.629804 32.078981 31.515913 30.940649 30.353033 29.752621 29.139035 28.513378 27.879983 27.244545 26.597963 25.926559 25.219665 1e+30 1e+30 1e+30 1e+30 1e+30 1e+30 1e+30 1e+30 1e+30 1e+30 1e+30 1e+30 1e+30 1e+30
1e+30 105.54066 105.47058 105.38448 105.26338 105.10495 104.90804 104.67106 104.39236 104.07038 103.70368 103.29092 102.83082 102.32214 101.76371 101.15443 100.49342 99.78007 99.014306 98.196801 97.329405 96.415505 95.460402 94.47166 93.459017 92.433751 91.407791 90.393213 89.402427 88.447421 87.535474 86.66219 85.820821 85.012379 84.247819 83.520372 82.818705 82.132315 81.452117 80.769721 80.077186 79.369651 78.655588 77.974506 77.313127 76.655073 75.983962 75.281473 74.54128 73.889149 73.259485 72.621881 71.938898 71.111111 70.555556 70 70.507611 70.763074 70.872144 70.978178 71.065225 71.115858 71.120785 71.074926 70.975825 70.822833 70.616402 70.357511 70.047368 69.687295 69.278638 68.822783 68.321145 67.775229 67.186609 66.556904 65.887823 65.181161 64.438768 63.662539 62.854399 62.016268 61.150027 60.257475 59.340306 58.400099 57.43828 56.456152 55.454991 54.436262 53.402176 52.357159 51.311875 50.292756 49.35098 48.43374 47.618602 46.666667 46.111111 45.555556 45 45.200238 45.084899 45.058565 44.964873 44.8511 44.690826 44.493618 44.281197 44.067658 43.840289 43.595282 43.338664 43.080571 42.83034 42.591781 42.360136 42.133259 41.914336 41.709771 41.525778 41.365009 41.224802 41.100205 40.985765 40.876455 40.767781 40.655735 40.536625 40.407103 40.26422 40.105522 39.929083 39.733478 39.517733 39.28126 39.023793 38.74533 38.446104 38.126517 37.7871 37.428489 37.051402 36.656604 36.244873 35.816979 35.373672 34.915648 34.443541 33.957904 33.45923 32.947954 32.424459 31.889085 31.342114 30.783763 30.214137 29.633201 29.040827 28.436995 27.822168 27.19721 26.561347 25.906946 25.218427 24.462764 23.542218 23.025609 1e+30 1e+30 1e+30 1e+30 1e+30 1e+30 1e+30 1e+30 1e+30 1e+30 1e+30 1e+30
1e+30 105.56074 105.5308 105.45878 105.34508 105.19023 104.99438 104.75715 104.47777 104.15534 103.7889 103.37753 102.92031 102.41642 101.86512 101.26585 100.61827 99.922437 99.178919 98.389006 97.555021 96.680531 95.770578 94.831728 93.872024 92.900598 91.927093 90.961224 90.012354 89.088567 88.194745 87.331099 86.496211 85.690556 84.916137 84.16959 83.444473 82.733709 82.030629 81.329352 80.625445 79.917689 79.211244 78.517428 77.833547 77.151767 76.463536 75.76301 75.055635 74.372506 73.69913 73.016896 72.305907 71.552627 70.827255 70 69.444444 69.716374 69.719076 69.904447 70.080801 70.210173 70.284182 70.298745 70.252645 70.146784 69.983085 69.763742 69.490822 69.166264 68.791892 68.369451 67.900659 67.387245 66.830988 66.233697 65.597203 64.923387 64.214186 63.471548 62.697433 61.893806 61.062609 60.205743 59.325065 58.422393 57.499557 56.558439 55.60115 54.630347 53.649837 52.665694 51.6881 50.733056 49.818124 48.9376 48.101784 47.27754 46.56493 45.848827 45 44.444444 43.888889 44.063869 43.924691 43.842247 43.660242 43.418314 43.170912 42.959186 42.723283 42.454651 42.167469 41.881208 41.613939 41.373445 41.139129 40.903712 40.673568 40.461439 40.280004 40.135007 40.019372 39.924368 39.841877 39.765524 39.690063 39.610959 39.523975 39.425196 39.311153 39.179023 39.026648 38.85252 38.655683 38.435628 38.192199 37.925523 37.635963 37.324095 36.990633 36.636424 36.262395 35.869538 35.458875 35.031419 34.588144 34.129987 33.657795 33.172326 32.674258 32.164181 31.642598 31.109955 30.566625 30.012885 29.44891 28.874786 28.290485 27.695944 27.091057 26.475303 25.846658 25.200023 24.527435 23.820737 23.088278 22.458997 21.842124 1e+30 1e+30 1e+30 1e+30 1e+30 1e+30 1e+30 1e+30 1e+30 1e+30 1e+30
1e+30 1e+30 105.58311 105.52479 105.41795 105.26651 105.07213 104.8354 104.55625 104.23432 103.86908 103.45998 103.00648 102.50811 101.96452 101.37558 100.7414 100.06249 99.339888 98.575269 97.771153 96.931065 96.059633 95.162631 94.246777 93.31955 92.388786 91.462257 90.547208 89.649719 88.773831 87.921242 87.09236 86.287494 85.506578 84.747374 84.00589 83.277425 82.557353 81.84165 81.12757 80.414436 79.704296 79.00043 78.30187 77.6049 76.905423 76.201402 75.495754 74.796103 74.097635 73.390667 72.665197 71.916238 71.150828 70.332569 69.444444 68.888889 68.333333 68.789731 69.093363 69.309855 69.457013 69.533232 69.539217 69.478562 69.355431 69.173539 68.935909 68.645063 68.303225 67.91247 67.474782 66.992114 66.466423 65.89969 65.293893 64.651009 63.973047 63.262035 62.519987 61.748925 60.950867 60.127826 59.281812 58.414868 57.529125 56.626897 55.710822 54.784146 53.851142 52.917684 51.991777 51.083248 50.200868 49.346754 48.523388 47.726777 46.972246 46.224823 45.456708 44.73017 43.888889 43.333333 42.777778 42.882957 42.639589 42.298494 41.974964 41.824898 41.589016 41.282588 40.945364 40.612866 40.32077 40.098932 39.869229 39.618886 39.364785 39.132418 38.947792 38.825652 38.743324 38.686023 38.641863 38.603676 38.56596 38.524032 38.473125 38.408557 38.326178 38.222748 38.09595 37.944281 37.766879 37.563391 37.333853 37.078587 36.798142 36.493282 36.164941 35.814192 35.442222 35.05028 34.639662 34.211652 33.767499 33.308368 32.835333 32.349361 31.851306 31.341904 30.82179 30.291514 29.751536 29.202218 28.643828 28.076532 27.500369 26.915227 26.320791 25.716264 25.099943 24.469031 23.820543 23.154461 22.481157 21.829974 21.17524 20.49252 1e+30 1e+30 1e+30 1e+30 1e+30 1e+30 1e+30 1e+30 1e+30 1e+30
1e+30 1e+30 105.64374 105.58936 105.48546 105.33574 105.14227 104.90608 104.62753 104.30661 103.94313 103.53683 103.08751 102.59499 102.05927 101.48054 100.85925 100.19626 99.492871 98.751002 97.973237 97.162937 96.324307 95.462383 94.582894 93.69204 92.796241 91.901808 91.014536 90.139302 89.279652 88.43771 87.614532 86.810518 86.025333 85.257453 84.504306 83.762768 83.029696 82.302327 81.57874 80.858181 80.141079 79.428137 78.718622 78.010572 77.301874 76.591423 75.879881 75.16852 74.454633 73.73295 72.997978 72.246322 71.477232 70.684991 69.883746 69.145965 68.333333 67.777778 68.143058 68.428871 68.650792 68.787939 68.84244 68.822802 68.736557 68.589084 68.384209 68.12485 67.813493 67.452431 67.04388 66.589996 66.092915 65.554761 64.977659 64.3637 63.714969 63.03356 62.32156 61.581052 60.814121 60.022885 59.209485 58.37614 57.525194 56.65921 55.781093 54.894266 54.002899 53.112126 52.228071 51.35729 50.505345 49.675165 48.868243 48.08394 47.32246 46.571516 45.821841 45.080642 44.324047 43.609195 42.777778 42.222222 41.666667 41.111111 40.555556 40.726438 40.475304 40.091328 39.668537 39.25413 38.907352 38.782295 38.569974 38.287831 37.984273 37.705654 37.503088 37.426471 37.392229 37.384509 37.385859 37.391352 37.396076 37.396066 37.385918 37.3597 37.312258 37.23986 37.140128 37.011756 36.854157 36.667226 36.451263 36.206831 35.934729 35.635949 35.311663 34.963198 34.592031 34.199711 33.787846 33.358031 32.911812 32.450632 31.9758 31.488484 30.989701 30.480336 29.961143 29.432772 28.895782 28.350616 27.797646 27.237124 26.669187 26.093778 25.5106 24.918988 24.317807 23.705587 23.081219 22.44539 21.801909 21.154512 20.48634 19.759808 18.87668 18.382371 1e+30 1e+30 1e+30 1e+30 1e+30 1e+30 1e+30 1e+30
1e+30 1e+30 105.70876 105.65348 105.54884 105.39871 105.20514 104.96915 104.6912 104.37148 104.01 103.60674 103.16174 102.67508 102.14702 101.57802 100.9688 100.32042 99.63437 98.912649 98.157842 97.373117 96.56227 95.729716 94.880374 94.01947 93.152342 92.284192 91.419821 90.563301 89.717782 88.885433 88.067557 87.264725 86.476789 85.702798 84.941119 84.189691 83.446376 82.709256 81.976897 81.248482 80.523727 79.802434 79.083896 78.366877 77.650063 76.93252 76.213841 75.493492 74.769447 74.038527 73.297427 72.543836 71.776785 70.996396 70.209585 69.427882 68.617289 67.777778 67.222222 67.561777 67.879341 68.075304 68.169801 68.183643 68.128894 68.012045 67.836998 67.606632 67.32346 66.989896 66.608317 66.181075 65.710478 65.198799 64.648283 64.06115 63.439567 62.785685 62.101651 61.389604 60.651699 59.890115 59.107106 58.305008 57.4863 56.653663 55.810077 54.958923 54.104055 53.249851 52.401085 51.562496 50.738056 49.930316 49.140479 48.368282 47.612141 46.866947 46.128511 45.396519 44.667466 43.951626 43.233094 42.594507 41.972291 41.323011 40.555556 40 39.444444 38.888889 38.333333 37.777778 37.222222 37.502932 37.29055 36.92819 36.528824 36.152836 35.882428 35.934903 35.964603 36.023928 36.075703 36.129775 36.180916 36.228231 36.264787 36.282053 36.273283 36.2343 36.162968 36.058472 35.920733 35.75009 35.547154 35.312773 35.04801 34.754119 34.432546 34.084915 33.713003 33.318708 32.903993 32.470826 32.021092 31.556541 31.07874 30.589062 30.088678 29.578589 29.059667 28.532653 27.998186 27.456812 26.909001 26.355136 25.79547 25.230077 24.658813 24.081254 23.496688 22.904261 22.303343 21.693951 21.076558 20.449838 19.805794 19.133682 18.437873 17.83808 17.24222 1e+30 1e+30 1e+30 1e+30 1e+30 1e+30 1e+30
1e+30 1e+30 105.77906 105.71697 105.60776 105.45517 105.26046 105.02418 104.74667 104.42811 104.06865 103.66841 103.22761 102.74657 102.22572 101.66572 101.06748 100.43223 99.761536 99.057427 98.322392 97.559417 96.771942 95.963855 95.139424 94.303121 93.45946 92.612822 91.767265 90.926298 90.092742 89.268692 88.455545 87.654049 86.864318 86.085863 85.317693 84.558505 83.806866 83.061431 82.321114 81.585122 80.85292 80.124003 79.397673 78.673003 77.949004 77.22477 76.499491 75.772153 75.041121 74.304259 73.559369 72.804791 72.039686 71.264221 70.480305 69.688678 68.880155 68.054783 67.222222 66.666667 67.179488 67.414137 67.527814 67.563086 67.533318 67.4432 67.295123 67.091225 66.833823 66.525383 66.168435 65.765518 65.319123 64.831679 64.305548 63.743052 63.146459 62.517965 61.859758 61.174021 60.462953 59.728786 58.973827 58.200491 57.411326 56.609059 55.796638 54.977294 54.15454 53.332135 52.513926 51.703557 50.904072 50.117563 49.34508 48.586571 47.840883 47.105636 46.378743 45.659467 44.947676 44.246753 43.558466 42.900424 42.254981 41.60309 40.936115 40.328783 39.740797 39.156796 38.565082 37.943152 37.222222 36.666667 36.111111 35.555556 35 34.444444 33.888889 34.416115 34.457342 34.620879 34.713232 34.821126 34.919574 35.021136 35.11294 35.180436 35.214526 35.211079 35.168978 35.088456 34.970236 34.815234 34.624477 34.399103 34.140434 33.849987 33.529497 33.180907 32.806354 32.408126 31.988608 31.5502 31.0952 30.625709 30.143564 29.650339 29.147347 28.635688 28.116295 27.589984 27.05747 26.519411 25.976399 25.42895 24.877468 24.322222 23.763291 23.200488 22.633397 22.06141 21.483933 20.9005 20.31053 19.712501 19.10332 18.481253 17.853036 17.239872 16.596406 15.822986 15.394571 1e+30 1e+30 1e+30 1e+30 1e+30
1e+30 105.93373 105.86151 105.77752 105.66005 105.50378 105.30735 105.07047 104.79319 104.47565 104.11806 103.72065 103.28377 102.80786 102.29356 101.74165 101.15316 100.52943 99.872092 99.183119 98.464905 97.72023 96.952226 96.164362 95.360372 94.544148 93.719576 92.890412 92.060161 91.231909 90.408214 89.591073 88.781917 87.981635 87.190586 86.408647 85.635301 84.869773 84.111146 83.358498 82.611007 81.867978 81.128826 80.392987 79.659798 78.928481 78.198186 77.468055 76.737187 76.004501 75.268631 74.527997 73.780994 73.026277 72.262935 71.490486 70.708723 69.916364 69.109866 68.288944 67.461747 66.666667 66.707801 66.823939 66.914246 66.957563 66.948099 66.882306 66.759072 66.57934 66.345231 66.059378 65.724533 65.343448 64.918821 64.453238 63.949192 63.409083 62.835251 62.229957 61.595397 60.933775 60.247303 59.538244 58.808932 58.061811 57.29946 56.5246 55.740117 54.949074 54.154679 53.360219 52.568919 51.783732 51.007108 50.240789 49.485724 48.742056 48.009186 47.285972 46.571363 45.864946 45.167036 44.479256 43.803604 43.143757 42.494132 41.848265 41.207035 40.588221 39.983161 39.382409 38.777055 38.157527 37.52026 36.926781 36.346751 35.768524 35.183045 34.573241 33.888889 33.333333 32.777778 33.239019 33.285204 33.471904 33.605098 33.773808 33.935407 34.062213 34.143304 34.176508 34.163397 34.106139 34.00655 33.866165 33.686411 33.468716 33.214634 32.925914 32.604568 32.252874 31.873373 31.468813 31.042109 30.596179 30.133817 29.657536 29.169475 28.671389 28.164684 27.650513 27.129834 26.603499 26.072299 25.536974 24.998237 24.456772 23.913209 23.368048 22.821629 22.274012 21.724975 21.17401 20.620451 20.063581 19.502559 18.936304 18.363733 17.785004 17.20317 16.621955 16.030563 15.428047 14.916173 14.41026 1e+30 1e+30 1e+30 1e+30
1e+30 105.95594 105.90586 105.82154 105.70116 105.54256 105.34469 105.10718 104.83 104.51327 104.15728 103.76236 103.32894 102.85758 102.34902 101.80416 101.22411 100.61026 99.964253 99.288033 98.583872 97.854359 97.102361 96.330995 95.54358 94.743538 93.934284 93.119109 92.301092 91.482995 90.667168 89.855511 89.049467 88.25003 87.457768 86.672849 85.89511 85.124163 84.359465 83.600416 82.846428 82.096941 81.351423 80.609329 79.870061 79.132939 78.397214 77.662079 76.926683 76.190021 75.45092 74.708109 73.960312 73.206359 72.445259 71.676078 70.897715 70.108203 69.304008 68.479364 67.619167 66.666667 66.111111 66.209568 66.297671 66.354832 66.369197 66.328861 66.229518 66.071828 65.858394 65.592361 65.276868 64.914944 64.509485 64.06326 63.578888 63.058854 62.505532 61.921213 61.308105 60.668382 60.004247 59.317952 58.611842 57.888367 57.150104 56.399758 55.640151 54.874199 54.10488 53.335145 52.567796 51.80534 51.049833 50.302758 49.564974 48.836751 48.117848 47.407713 46.705809 46.011922 45.326279 44.649642 43.982947 43.326881 42.679524 42.03881 41.405544 40.783907 40.171232 39.56263 38.953196 38.339632 37.724509 37.123449 36.530589 35.938727 35.340396 34.726586 34.09027 33.464253 32.777778 32.222222 31.666667 32.126195 32.205104 32.48358 32.742655 32.939727 33.069963 33.138262 33.151972 33.116132 33.033655 32.906495 32.736316 32.52473 32.273457 31.984459 31.659989 31.302661 30.915447 30.501651 30.064821 29.60857 29.136347 28.651157 28.155437 27.651068 27.139492 26.621835 26.099023 25.571893 25.041249 24.507922 23.972765 23.436669 22.900509 22.365108 21.831129 21.298923 20.76844 20.239172 19.710272 19.180783 18.649764 18.116418 17.580309 17.041866 16.502657 15.964217 15.425846 14.892457 14.381836 13.854362 13.226742 12.890241 1e+30 1e+30
1e+30 105.97819 105.9345 105.85167 105.73049 105.57062 105.37169 105.13357 104.85634 104.54019 104.18545 103.79256 103.36202 102.8945 102.39078 101.85185 101.27887 100.67326 100.03663 99.370894 98.678202 97.960975 97.221856 96.463679 95.689423 94.902151 94.104911 93.300646 92.492116 91.681827 90.871964 90.064349 89.260428 88.461279 87.667629 86.879881 86.098146 85.322321 84.552152 83.787292 83.027364 82.271945 81.520596 80.772845 80.028172 79.285991 78.54565 77.806411 77.067481 76.327973 75.586897 74.843193 74.09578 73.343607 72.585649 71.820844 71.047847 70.264726 69.468608 68.655334 67.818899 66.955732 66.111111 65.555556 65.662032 65.7449 65.79501 65.78441 65.70832 65.57006 65.374179 65.124814 64.825636 64.479975 64.090939 63.661444 63.194247 62.69191 62.156831 61.591279 60.997432 60.37741 59.733352 59.067479 58.382112 57.679704 56.96283 56.23418 55.496526 54.752688 54.00549 53.257673 52.511775 51.770005 51.034137 50.305441 49.58467 48.872125 48.16774 47.471226 46.782265 46.100684 45.426537 44.760099 44.101675 43.451311 42.808286 42.171911 41.542429 40.920639 40.305238 39.693689 39.083454 38.47329 37.864711 37.261922 36.663421 36.065382 35.463208 34.852431 34.23133 33.605619 32.966174 32.342657 31.666667 31.111111 30.555556 31.162754 31.561892 31.834067 32.008575 32.104607 32.140104 32.122774 32.055418 31.939833 31.777631 31.570442 31.320027 31.028467 30.698249 30.33233 29.934125 29.507546 29.056949 28.58692 28.101819 27.605283 27.100024 26.587947 26.070383 25.54831 25.022523 24.493782 23.962883 23.430703 22.898231 22.366593 21.837011 21.310723 20.788828 20.272078 19.76064 19.253906 18.750644 18.249492 17.749282 17.249274 16.749213 16.249519 15.751389 15.256389 14.766138 14.284098 13.814384 13.34856 12.8856 12.503668 12.098038 11.916581
1e+30 105.9941 105.95228 105.87015 105.74855 105.58775 105.38789 105.1491 104.8716 104.55571 104.20181 103.81042 103.3821 102.9176 102.41775 101.88358 101.31628 100.71726 100.08813 99.430719 98.747075 98.039485 97.310401 96.562429 95.79829 95.020755 94.232589 93.43647 92.634921 91.830253 91.024522 90.219492 89.416614 88.617032 87.821602 87.030904 86.245261 85.464805 84.689513 83.919245 83.153795 82.39288 81.636171 80.883293 80.133812 79.387236 78.642991 77.900438 77.158864 76.417505 75.675506 74.931982 74.185997 73.436627 72.682902 71.923789 71.158088 70.384249 69.600368 68.804458 67.995359 67.176246 66.361696 65.555556 65 65.117722 65.231537 65.255461 65.19929 65.075911 64.893438 64.657096 64.370894 64.038379 63.662848 63.247361 62.794767 62.307711 61.788604 61.239659 60.66295 60.060483 59.434289 58.786503 58.11942 57.435495 56.737321 56.027598 55.30908 54.584537 53.856722 53.128282 52.401624 51.67877 50.961274 50.250197 49.546147 48.849356 48.159778 47.477198 46.801351 46.132022 45.469095 44.812552 44.162373 43.518435 42.880426 42.24813 41.621633 41.000986 40.38539 39.773414 39.163627 38.555335 37.949079 37.346069 36.745765 36.146175 35.544603 34.938575 34.326999 33.710699 33.08866 32.465581 31.831645 31.213858 30.555556 30 30.458097 30.776063 30.975645 31.081496 31.131062 31.129453 31.075426 30.969795 30.813925 30.609373 30.357755 30.061147 29.722223 29.344272 28.931159 28.487457 28.018525 27.530353 27.028731 26.518124 26.001418 25.480305 24.955779 24.428482 23.898966 23.36783 22.835798 22.303764 21.772865 21.244483 20.720235 20.201936 19.69136 19.189918 18.698135 18.215158 17.738905 17.267239 16.79862 16.332196 15.867719 15.405618 14.947043 14.493799 14.04819 13.613415 13.193082 12.78992 12.413582 12.09075 11.823832 11.685181
1e+30 106.00186 105.96036 105.8781 105.7558 105.59397 105.39304 105.15336 104.87528 104.55924 104.20569 103.81519 103.38839 102.92604 102.42906 101.89844 101.33542 100.74138 100.11791 99.466774 98.789924 98.089511 97.367844 96.627351 95.87055 95.099997 94.318236 93.527741 92.730858 91.929754 91.126392 90.322488 89.519504 88.718642 87.920857 87.126872 86.337183 85.552114 84.771829 83.996361 83.225662 82.459581 81.697906 80.940356 80.186581 79.436169 78.688639 77.943465 77.200039 76.457682 75.715662 74.973231 74.229603 73.483979 72.735531 71.983342 71.226459 70.463788 69.694158 68.916765 68.131848 67.34218 66.553855 65.771365 65 64.444444 64.707954 64.756615 64.707464 64.590869 64.416568 64.189239 63.912479 63.589816 63.224709 62.820383 62.379777 61.905584 61.400223 60.865812 60.304238 59.71729 59.106819 58.474838 57.823587 57.155542 56.473361 55.779803 55.077643 54.369647 53.658573 52.947107 52.237668 51.532182 50.831998 50.137931 49.450368 48.76938 48.094828 47.426449 46.763932 46.106971 45.455293 44.808658 44.166843 43.529632 42.896864 42.26857 41.644994 41.026271 40.411926 39.800968 39.19232 38.585352 37.980196 37.377491 36.777383 36.178918 35.580433 34.980267 34.377395 33.771512 33.162162 32.549402 31.930511 31.307139 30.663937 30 29.444444 29.786458 29.986445 30.064655 30.123199 30.138558 30.097042 29.999999 29.848915 29.645343 29.390459 29.086144 28.73524 28.341381 27.908781 27.442575 26.949338 26.437243 25.914655 25.387084 24.85723 24.3261 23.793962 23.260896 22.727055 22.192795 21.658711 21.125693 20.594983 20.068232 19.547519 19.03542 18.534758 18.048108 17.576823 17.119676 16.672583 16.231917 15.795737 15.363193 14.933854 14.508155 14.087396 13.673613 13.269425 12.878279 12.504593 12.154421 11.838104 11.571943 11.371343 11.265083
1e+30 106.00114 105.95924 105.87611 105.75256 105.58931 105.38695 105.146 104.86695 104.55028 104.19653 103.80628 103.38022 102.91914 102.42395 101.8957 101.33557 100.74495 100.12537 99.478534 98.806333 98.110805 97.39413 96.658597 95.906574 95.140457 94.362627 93.575409 92.78102 91.981524 91.178809 90.374569 89.570274 88.767171 87.966309 87.16853 86.37448 85.584632 84.799308 84.0187 83.242896 82.471869 81.705512 80.943633 80.185972 79.43221 78.681966 77.934776 77.190145 76.447494 75.706228 74.965686 74.225212 73.484153 72.741864 71.997608 71.250651 70.500258 69.74572 68.986575 68.223109 67.456781 66.690207 65.92606 65.169812 64.444444 64.349218 64.305583 64.233095 64.113529 63.942737 63.720808 63.44997 63.133708 62.775807 62.379679 61.948376 61.484648 60.99091 60.469138 59.920902 59.347629 58.750866 58.13244 57.494543 56.839722 56.170785 55.490621 54.802053 54.10784 53.410817 52.7139 52.019753 51.330296 50.646617 49.969176 49.298024 48.632978 47.973716 47.319852 46.670974 46.026659 45.386475 44.749978 44.116738 43.486404 42.858841 42.234318 41.613533 40.997189 40.385076 39.776198 39.169314 38.563534 37.958838 37.3563 36.757355 36.161684 35.567923 34.97464 34.380805 33.785809 33.189039 32.589326 31.983859 31.370211 30.743034 30.10087 29.444444 28.888889 29.069035 29.017489 29.108509 29.154525 29.124194 29.034241 28.886399 28.68263 28.422615 28.107711 27.741208 27.327216 26.870027 26.374751 25.84901 25.304619 24.755556 24.208343 23.664347 23.12292 22.58308 22.044075 21.505552 20.967566 20.430542 19.895297 19.363123 18.835887 18.316169 17.807443 17.314083 16.840889 16.391354 15.964065 15.549772 15.142076 14.739173 14.340916 13.946397 13.555775 13.170752 12.793835 12.427681 12.075704 11.7426 11.435015 11.162474 10.937663 10.774549 10.688707
1e+30 105.9923 105.94937 105.86455 105.73903 105.57375 105.36946 105.12679 104.84626 104.52843 104.17387 103.7832 103.35709 102.89637 102.40193 101.87482 101.31623 100.72749 100.11008 99.46567 98.796068 98.10324 97.38927 96.656337 95.906695 95.142627 94.366405 93.580251 92.786285 91.986504 91.182752 90.376701 89.569836 88.763455 87.958679 87.156458 86.357564 85.562611 84.772056 83.986232 83.205347 82.429484 81.658623 80.892675 80.131467 79.374754 78.622228 77.873536 77.128275 76.385945 75.646043 74.90805 74.171406 73.435602 72.700135 71.964523 71.228285 70.490907 69.751868 69.010684 68.267204 67.521637 66.774129 66.022857 65.258749 64.444444 63.888889 63.833404 63.755809 63.637423 63.47004 63.251294 62.982886 62.669241 62.315142 61.924173 61.499402 61.043724 60.559645 60.048939 59.512611 58.951464 58.366575 57.759517 57.132428 56.488015 55.829422 55.159841 54.482105 53.798843 53.112968 52.427935 51.74716 51.072634 50.405 49.744135 49.089585 48.440796 47.797212 47.158287 46.52348 45.892247 45.263993 44.638064 44.013758 43.390436 42.767797 42.146323 41.527648 40.913885 40.304983 39.699423 39.095188 38.490611 37.885293 37.281481 36.684013 36.092494 35.504924 34.919566 34.335361 33.751879 33.168875 32.585025 31.995392 31.396817 30.78714 30.165954 29.533682 28.888889 28.333333 27.777778 28.088833 28.196832 28.16095 28.076379 27.929815 27.726154 27.459663 27.130872 26.74467 26.306242 25.81936 25.287388 24.717315 24.126652 23.544602 22.976371 22.418863 21.868145 21.321359 20.776785 20.23355 19.691404 19.150598 18.611835 18.076357 17.54606 17.02385 16.51412 16.023274 15.560021 15.13365 14.745507 14.370386 13.997447 13.628004 13.264862 12.905019 12.547791 12.196008 11.853273 11.521756 11.204275 10.905146 10.630561 10.389091 10.191701 10.05044 9.9765033
1e+30 105.97638 105.93138 105.84372 105.71526 105.54721 105.34037 105.0954 104.81289 104.49333 104.13733 103.74554 103.3186 102.85731 102.36259 101.83545 101.27704 100.68868 100.0718 99.428004 98.75905 98.066837 97.35338 96.620789 95.871244 95.106954 94.330121 93.542898 92.747355 91.945442 91.138977 90.329625 89.518888 88.708114 87.898488 87.091055 86.286702 85.486172 84.690061 83.898824 83.11277 82.332077 81.55682 80.786987 80.022463 79.26309 78.50865 77.758882 77.013457 76.271976 75.533977 74.799041 74.066748 73.336706 72.608561 71.882066 71.157033 70.433239 69.710178 68.987124 68.263378 67.538433 66.81183 66.082507 65.34787 64.60632 63.888889 63.333333 63.269311 63.160324 62.998713 62.781442 62.511047 62.195233 61.84134 61.452484 61.031355 60.581208 60.105014 59.604366 59.079146 58.529052 57.954461 57.356618 56.737624 56.100493 55.449052 54.787217 54.117678 53.442453 52.764271 52.087716 51.418331 50.758087 50.106625 49.462791 48.825393 48.193422 47.566057 46.942605 46.322421 45.704862 45.089199 44.474546 43.85982 43.24382 42.62562 42.005547 41.386849 40.775724 40.171568 39.571312 38.971405 38.368409 37.760242 37.150316 36.554722 35.969321 35.389707 34.813329 34.239164 33.667448 33.099552 32.536459 31.965882 31.384526 30.792764 30.192162 29.585439 28.978225 28.388528 27.777778 27.222222 27.333028 27.196394 27.130495 26.980318 26.782519 26.509012 26.161422 25.750356 25.28372 24.763786 24.188154 23.556245 22.890087 22.26983 21.683697 21.116598 20.559445 20.007435 19.458144 18.910426 18.363883 17.818599 17.275088 16.734367 16.198101 15.669047 15.151895 14.654833 14.192259 13.787671 13.463915 13.1388 12.799246 12.460517 12.135527 11.811014 11.484367 11.162278 10.851477 10.551809 10.26446 9.9931776 9.7430128 9.5216451 9.3396623 9.2090027 9.1404283
1e+30 105.95549 105.90601 105.81372 105.68114 105.50946 105.29942 105.0516 104.76653 104.44469 104.08665 103.693 103.26443 102.80171 102.30569 101.77736 101.21784 100.62839 100.01043 99.365504 98.695306 98.001691 97.28663 96.5522 95.80054 95.033819 94.254218 93.463856 92.664777 91.858918 91.048082 90.233924 89.417969 88.601607 87.786097 86.972562 86.162003 85.355297 84.553177 83.756214 82.964813 82.179232 81.399608 80.625978 79.858301 79.096484 78.340401 77.589877 76.844688 76.104503 75.368876 74.637402 73.909818 73.185914 72.465382 71.748146 71.034518 70.324816 69.618485 68.914261 68.210744 67.506885 66.802262 66.097462 65.393887 64.69406 64.006967 63.333333 62.777778 62.685844 62.533052 62.314718 62.034622 61.709316 61.352506 60.963065 60.542328 60.094741 59.624849 59.13437 58.620562 58.081136 57.515606 56.924881 56.310966 55.677275 55.029076 54.37229 53.708932 53.03902 52.363959 51.690341 51.030377 50.384774 49.750631 49.125023 48.505794 47.891467 47.281017 46.673667 46.068753 45.465604 44.863418 44.261114 43.657154 43.049416 42.43534 41.813421 41.188479 40.580589 39.984257 39.392877 38.800702 38.201364 37.586927 36.954788 36.365233 35.790326 35.221221 34.654874 34.09053 33.529208 32.975488 32.445372 31.8971 31.332669 30.757197 30.174491 29.587643 29.000019 28.414766 27.82242 27.222222 26.666667 26.111111 26.218898 26.028449 25.86458 25.582433 25.205469 24.761608 24.264487 23.713893 23.095168 22.37939 21.557608 20.910964 20.321979 19.754378 19.195595 18.640795 18.087943 17.536142 16.985093 16.434814 15.885569 15.337934 14.792925 14.252333 13.719587 13.201905 12.716534 12.310853 12.133663 11.871636 11.550254 11.229262 10.955683 10.669125 10.366307 10.067286 9.7885275 9.5195483 9.2586026 9.010139 8.7766507 8.564799 8.3862775 8.2554624 8.1858235
105.95867 105.93413 105.87336 105.77399 105.63611 105.46008 105.24627 104.99508 104.70693 104.38226 104.02158 103.62542 103.19444 102.72939 102.23108 101.70045 101.13857 100.54665 99.926044 99.278268 98.60498 97.907994 97.189261 96.450848 95.694895 94.923575 94.13907 93.343518 92.538965 91.727354 90.910481 90.090003 89.267456 88.444258 87.621725 86.801084 85.983453 85.169845 84.361135 83.558027 82.761016 81.970413 81.186398 80.409021 79.638277 78.874134 78.116582 77.365529 76.620891 75.88245 75.149609 74.421887 73.699203 72.981695 72.268906 71.560645 70.858054 70.162988 69.474652 68.790676 68.108479 67.426074 66.742904 66.061223 65.386191 64.719109 64.061632 63.414025 62.777778 62.222222 62.082925 61.859758 61.553411 61.204897 60.846318 60.454959 60.030163 59.580582 59.115269 58.637696 58.137593 57.609322 57.051941 56.466333 55.854088 55.21857 54.567698 53.913948 53.256747 52.590736 51.912199 51.229317 50.578066 49.95001 49.336107 48.730885 48.131304 47.535648 46.942881 46.3523 45.763337 45.175409 44.58778 43.999348 43.40828 42.811357 42.202895 41.574312 40.923052 40.323899 39.741958 39.165231 38.587176 37.999416 37.381312 36.666667 36.111111 35.555556 35 34.444444 33.888889 33.333333 32.777778 32.322475 31.794502 31.241797 30.678908 30.111011 29.540621 28.969412 28.398107 27.824957 27.251493 26.686509 26.111111 25.555556 25 25.014918 24.700656 24.266399 23.776133 23.248744 22.682134 22.049234 21.258541 20 19.444444 18.888889 18.333333 17.777778 17.222222 16.666667 16.111111 15.555556 15 14.444444 13.888889 13.333333 12.777778 12.222222 11.666667 11.111111 10.555556 10.838255 10.613806 10.250879 9.9005815 9.7388093 9.4935299 9.194443 8.9020377 8.6658126 8.4292802 8.1902315 7.9621128 7.7387089 7.5246496 7.335244 7.1907864 7.1115077
105.93322 105.89911 105.8293 105.72281 105.57923 105.39846 105.1805 104.92554 104.63386 104.30585 103.94194 103.54266 103.10856 102.64034 102.1388 101.6048 101.03934 100.44359 99.818839 99.16655 98.488355 97.786044 97.061577 96.31704 95.554604 94.776501 93.984964 93.182176 92.370214 91.551041 90.726468 89.898145 89.067595 88.236249 87.405475 86.576597 85.750876 84.929495 84.113501 83.303737 82.50079 81.704998 80.916533 80.135426 79.361638 78.59521 77.836239 77.084753 76.34092 75.604746 74.875212 74.151331 73.433428 72.722723 72.017854 71.317483 70.624091 69.944451 69.276449 68.615323 67.956449 67.29602 66.632059 65.96831 65.320512 64.684529 64.056449 63.433366 62.81529 62.222222 61.666667 61.437978 61.064372 60.660543 60.322906 59.930295 59.492776 59.032158 58.567955 58.113562 57.632794 57.116623 56.566502 55.984422 55.370478 54.725216 54.059197 53.409052 52.763368 52.104982 51.414797 50.686671 50.052569 49.451096 48.862913 48.281118 47.702896 47.126943 46.552564 45.979327 45.406896 44.834925 44.262955 43.690229 43.115281 42.534854 41.940573 41.307886 40.555556 40 39.444444 38.888889 38.333333 37.777778 37.222222 36.666667 36.875172 36.594826 36.142468 35.601322 34.967466 34.14466 32.777778 32.222222 31.666667 31.111111 30.555556 30 29.444444 28.888889 28.333333 27.777778 27.222222 26.666667 26.111111 25.555556 25 24.444444 23.888889 23.333333 22.777778 22.222222 21.666667 21.111111 20.555556 20 20.366706 20.140474 19.720357 19.226791 18.700625 18.157479 17.603975 17.043056 16.475881 15.902463 15.321717 14.730934 14.124191 13.487882 12.787171 11.92075 10.555556 10 9.4444444 8.8888889 8.3333333 8.5554233 8.3217744 7.9658801 7.6306154 7.4934004 7.2915342 7.0609811 6.8593897 6.6414334 6.4098103 6.1892487 6.0109717 5.9079923
105.89179 105.84984 105.77191 105.65872 105.5096 105.32401 105.10173 104.84272 104.54717 104.21536 103.84771 103.44468 103.00679 102.53466 102.02898 101.49059 100.92042 100.31953 99.689169 99.030741 98.345848 97.63627 96.903987 96.151141 95.379989 94.592861 93.792101 92.979985 92.158665 91.330136 90.496205 89.658507 88.818528 87.97768 87.137355 86.298971 85.463965 84.633752 83.809636 82.992635 82.183402 81.382255 80.589293 79.804486 79.02764 78.258837 77.498402 76.746306 76.003287 75.27038 74.545129 73.824762 73.110474 72.407947 71.712256 71.017332 70.326368 69.664289 69.021348 68.387719 67.755995 67.119497 66.471057 65.809478 65.193003 64.592065 63.996276 63.397694 62.777778 62.222222 61.666667 61.111111 60.555556 60 59.804472 59.400536 58.928489 58.437312 57.960825 57.565808 57.113398 56.60788 56.063026 55.484377 54.868195 54.202623 53.484823 52.849698 52.23269 51.60103 50.905346 50 49.444444 48.888889 48.333333 47.777778 47.222222 46.666667 46.111111 45.555556 45 44.444444 43.888889 43.333333 42.777778 42.222222 41.666667 41.111111 40.555556 40.708104 40.445521 40.046735 39.598511 39.135471 38.683158 38.286827 38.078048 37.756121 37.323726 36.800908 36.184999 35.450068 34.589397 33.929893 33.336782 32.768443 32.210417 31.657036 31.105817 30.555568 30.005679 29.455828 28.90585 28.355678 27.80531 27.254805 26.704283 26.153948 25.604126 25.055351 24.508529 23.965299 23.428888 22.906356 22.415164 22.004538 21.83182 21.535975 21.130842 20.658414 20.146017 19.608661 19.054263 18.486822 17.908012 17.31782 16.714594 16.094506 15.45018 14.767954 14.023398 13.179168 12.220568 11.444782 10.675034 9.7603744 8.3333333 7.7777778 7.2222222 6.6666667 6.1111111 6.3356335 6.1324699 5.8527398 5.7230486 5.5078098 5.2339997 4.950987 4.7057263 4.5514794
105.84227 105.7866 105.69977 105.58053 105.42646 105.23633 105.00968 104.74644 104.44671 104.11073 103.73889 103.33158 102.88927 102.41249 101.90189 101.35818 100.78221 100.17496 99.537572 98.8714 98.178013 97.459194 96.716963 95.953544 95.171342 94.372856 93.560598 92.736999 91.904332 91.064647 90.219734 89.371159 88.520332 87.668596 86.817312 85.967978 85.122268 84.28194 83.448665 82.623752 81.807936 81.001335 80.203912 79.415548 78.63557 77.8641 77.102178 76.348771 75.605527 74.878354 74.160135 73.44213 72.725748 72.036355 71.355896 70.663206 69.949753 69.314974 68.706969 68.108204 67.510327 66.904907 66.273152 65.555556 65 64.444444 63.888889 63.333333 62.777778 62.46525 61.979046 61.419307 60.789297 60 59.444444 58.888889 58.333333 57.777778 57.222222 57.025451 56.597108 56.088471 55.54334 54.971865 54.365302 53.68226 52.777778 52.222222 51.666667 51.111111 50.555556 50 49.562724 49.041797 48.492128 47.930239 47.361588 46.788138 46.210863 45.630922 45.050211 44.469496 43.888889 43.333333 42.777778 42.844747 42.597077 42.25975 41.938269 41.781312 41.532809 41.204022 40.828503 40.432434 40.038115 39.669435 39.344082 38.977882 38.545402 38.043581 37.471553 36.831219 36.149848 35.521174 34.932127 34.365467 33.810641 33.26192 32.71623 32.171898 31.627997 31.084013 30.539682 29.994893 29.449655 28.904079 28.358387 27.812944 27.268322 26.725423 26.185696 25.651567 25.127243 24.620272 24.144217 23.72117 23.370088 22.990763 22.55862 22.080008 21.566372 21.026889 20.467592 19.891958 19.301524 18.696212 18.074341 17.43232 16.764065 16.060348 15.309294 14.501964 13.652772 12.833536 12.000543 11.094242 10.087053 9.2872234 8.5010197 7.5683901 6.1111111 5.5555556 5 4.4444444 4.6222548 4.3826883 4.0173811 3.6250481 3.2595178 2.9907253
105.79841 105.70455 105.61011 105.48714 105.32934 105.13518 104.90426 104.63664 104.33248 103.99201 103.61555 103.20347 102.7562 102.27417 101.75791 101.20804 100.62528 100.0105 99.364743 98.689273 97.985608 97.255528 96.501117 95.724737 94.92899 94.116631 93.290433 92.453077 91.607021 90.754384 89.896931 89.036091 88.173082 87.309064 86.44531 85.583377 84.725205 83.873092 83.029353 82.19578 81.373259 80.561258 79.759483 78.968202 78.184964 77.409794 76.64741 75.891065 75.14171 74.427367 73.72492 73.007839 72.264029 71.605828 70.961789 70.279853 69.444444 68.888889 68.333333 67.777778 67.222222 66.666667 66.111111 65.555556 65.30571 64.858446 64.348615 63.820731 63.300481 62.83199 62.314938 61.74777 61.132334 60.473209 59.866267 59.270198 58.663732 58.013844 57.222222 56.666667 56.111111 55.555556 55 54.444444 53.888889 53.333333 52.777778 52.375044 51.86833 51.328732 50.779624 50.234229 49.714653 49.173442 48.613138 48.039467 47.455749 46.863439 46.263281 45.657056 45.050427 44.444444 43.888889 43.952074 43.806347 43.73189 43.56715 43.342542 43.106452 42.896068 42.650375 42.358033 42.029035 41.677643 41.317424 40.958716 40.600954 40.215916 39.786414 39.306474 38.776413 38.203406 37.607604 37.022828 36.455087 35.900657 35.354765 34.813776 34.275288 33.7378 33.200397 32.662548 32.123971 31.584557 31.044337 30.503467 29.96224 29.421117 28.880795 28.342321 27.807269 27.278032 26.758246 26.253272 25.770255 25.315846 24.886586 24.448359 23.982859 23.486625 22.96257 22.414926 21.847252 21.261889 20.659911 20.041163 19.404234 18.746369 18.063412 17.350106 16.601474 15.816629 15.005027 14.186048 13.349352 12.478997 11.583409 10.733043 9.8762491 8.944764 7.8992141 7.0280049 6.0387048 4.4444444 3.8888889 3.3333333 2.7777778 2.2222222 1.6666667 1.1111111
1e+30 105.57304 105.49901 105.3786 105.21862 105.02076 104.78557 104.5134 104.20454 103.85926 103.47783 103.0606 102.60789 102.12006 101.59754 101.04078 100.45038 99.82703 99.171636 98.485345 97.769603 97.026178 96.257225 95.46529 94.65325 93.824238 92.981428 92.12787 91.266295 90.398948 89.527517 88.653191 87.776848 86.899293 86.021512 85.145009 84.27208 83.405906 82.549912 81.706767 80.878046 80.060946 79.25459 78.462817 77.676292 76.892734 76.136621 75.376362 74.59286 73.914479 73.254363 72.550277 71.666667 71.111111 70.555556 70 69.444444 69.226944 68.795971 68.294546 67.767328 67.231843 66.700019 66.191086 65.75888 65.284997 64.776392 64.250498 63.721425 63.197268 62.650946 62.07451 61.469055 60.844227 60.227215 59.611907 58.987553 58.341635 57.670136 57.062223 56.476497 55.899961 55.328116 54.759491 54.194275 53.634804 53.088813 52.581853 52.052877 51.505855 50.949984 50.392639 49.838217 49.274184 48.697517 48.108745 47.508504 46.896591 46.271768 45.633592 45 44.444444 44.638509 44.729711 44.713646 44.659319 44.547086 44.386809 44.198927 43.996123 43.764581 43.498694 43.201958 42.881686 42.545229 42.197054 41.835108 41.448414 41.02786 40.569469 40.074215 39.548385 39.004329 38.457446 37.914732 37.377307 36.843983 36.313128 35.783345 35.253611 34.723239 34.191807 33.65909 33.125021 32.589663 32.053208 31.515983 30.978481 30.441415 29.905792 29.373025 28.845052 28.324448 27.814334 27.317698 26.835385 26.362068 25.883251 25.387856 24.871088 24.33238 23.773016 23.194625 22.59846 21.985097 21.35432 20.705084 20.03552 19.343102 18.62516 17.879865 17.108054 16.314662 15.506306 14.681824 13.838987 12.984545 12.13529 11.27616 10.385202 9.4629711 8.5685477 7.6323751 6.6156328 5.8995863 5.3006691 4.7654432 4.2837038 3.8705149 3.5805804
1e+30 105.46556 105.3843 105.25961 105.09578 104.89365 104.65386 104.37687 104.06304 103.71265 103.32594 102.9032 102.44469 101.95067 101.42139 100.85718 100.2584 99.625579 98.959416 98.260873 97.53127 96.772345 95.986318 95.17595 94.344503 93.495637 92.633149 91.760674 90.881356 89.997612 89.110996 88.222299 87.331835 86.439762 85.546459 84.653082 83.762212 82.878539 82.007638 81.15334 80.321216 79.499883 78.685153 77.902195 77.114642 76.298225 75.579942 74.834918 73.888889 73.333333 72.777778 72.222222 71.666667 71.482319 71.074049 70.600863 70.127584 69.728526 69.279039 68.787099 68.270698 67.743364 67.216034 66.699883 66.203708 65.696274 65.171462 64.633441 64.087436 63.534708 62.967065 62.380269 61.775142 61.157418 60.536449 59.912658 59.282931 58.645003 58.004466 57.385602 56.782696 56.189672 55.603006 55.021123 54.443924 53.872799 53.310816 52.760669 52.205474 51.641831 51.071825 50.498125 49.921397 49.337555 48.743997 48.13949 47.522932 46.892651 46.243602 45.555556 45 45.242265 45.440977 45.564621 45.609212 45.594648 45.525068 45.408678 45.256318 45.074915 44.863129 44.620196 44.348407 44.051897 43.73474 43.399157 43.044006 42.664772 42.257164 41.819344 41.35261 40.861601 40.353895 39.837907 39.319101 38.799871 38.280745 37.761422 37.241368 36.720075 36.197156 35.672364 35.145575 34.616787 34.086102 33.553734 33.020016 32.485423 31.950603 31.416421 30.883993 30.354703 29.830149 29.311888 28.800789 28.295901 27.793027 27.284706 26.764211 26.22747 25.672831 25.100116 24.509755 23.902215 23.277687 22.635933 21.976253 21.297526 20.598374 19.877609 19.134812 18.371081 17.589252 16.792653 15.982647 15.160584 14.330498 13.497451 12.657897 11.806903 10.94892 10.100836 9.256616 8.4361241 7.7431551 7.1543121 6.6496288 6.2266483 5.9011142 5.7101178
1e+30 105.38932 105.26307 105.12979 104.96123 104.75423 104.50934 104.2272 103.90812 103.55234 103.16009 102.73159 102.26701 101.76652 101.23019 100.65813 100.05047 99.407463 98.729555 98.017458 97.272269 96.495606 95.689737 94.857669 94.003177 93.130664 92.244857 91.35032 90.450865 89.549162 88.64655 87.743172 86.838439 85.931473 85.021512 84.108656 83.195146 82.288388 81.39875 80.527763 79.70366 78.88222 78.033942 77.29617 76.531868 75.555556 75 74.444444 73.888889 73.714855 73.318086 72.857317 72.399848 72.02751 71.607435 71.151817 70.686508 70.23052 69.75456 69.254116 68.735009 68.204882 67.670869 67.138687 66.60979 66.07492 65.529724 64.974355 64.410162 63.837062 63.252343 62.654348 62.043817 61.423842 60.798494 60.169333 59.536508 58.900982 58.267123 57.643026 57.029016 56.42303 55.82312 55.22808 54.637499 54.051646 53.470989 52.894539 52.316513 51.734166 51.147362 50.556637 49.961692 49.360643 48.751435 48.132293 47.501088 46.857476 46.204436 45.555556 45.751434 46.033626 46.268531 46.428587 46.513929 46.534987 46.499844 46.416504 46.292741 46.134078 45.942813 45.720548 45.469575 45.192749 44.892677 44.570837 44.226996 43.859492 43.46667 43.048119 42.60527 42.141508 41.661732 41.171174 40.673883 40.17232 39.66769 39.160435 38.650615 38.13815 37.622935 37.104902 36.584046 36.060435 35.534209 35.005594 34.474909 33.942578 33.409145 32.875288 32.341813 31.809619 31.279574 30.752295 30.22769 29.704423 29.179451 28.64835 28.106829 27.551767 26.981378 26.394884 25.792081 25.172971 24.537511 23.885494 23.216492 22.529942 21.82525 21.102077 20.360681 19.602211 18.828674 18.04245 17.245565 16.44022 15.629399 14.816077 14.001069 13.185588 12.375011 11.579251 10.807119 10.079089 9.4326079 8.8737939 8.402098 8.0221311 7.7471693 7.5986457
1e+30 1e+30 105.09886 104.9853 104.8151 104.60268 104.35209 104.06445 103.73992 103.37854 102.98049 102.54603 102.07527 101.56821 101.02474 100.44468 99.827875 99.17425 98.483876 97.757111 96.994721 96.198066 95.369353 94.511816 93.629866 92.728981 91.815302 90.894867 89.972603 89.051622 88.132894 87.215421 86.297266 85.376178 84.449453 83.514895 82.571336 81.631146 80.721194 79.805322 79.033436 78.241417 77.222222 76.666667 76.111111 75.555556 75.40391 75.030748 74.613821 74.269178 73.872378 73.439099 72.997889 72.570417 72.126365 71.662466 71.186107 70.70249 70.20456 69.68979 69.160329 68.620278 68.073864 67.524194 66.971836 66.413883 65.848159 65.274091 64.691789 64.101014 63.500876 62.890944 62.27192 61.645633 61.014351 60.379674 59.742784 59.105296 58.470019 57.840365 57.217322 56.600326 55.988371 55.380573 54.776345 54.175306 53.576949 52.979982 52.381874 51.78097 51.176816 50.569363 49.958088 49.341884 48.718804 48.087158 47.441644 46.781724 46.111111 45.555556 46.366543 46.822285 47.120927 47.31726 47.432928 47.48153 47.472815 47.414752 47.314062 47.175846 47.003504 46.799613 46.566605 46.306853 46.022386 45.714516 45.383656 45.029541 44.651919 44.251201 43.828852 43.387444 42.930366 42.461187 41.98295 41.497849 41.007275 40.512026 40.012526 39.508992 39.001545 38.490277 37.975288 37.456709 36.934716 36.409536 35.881459 35.350847 34.818127 34.283793 33.748377 33.212399 32.676257 32.14004 31.603276 31.064677 30.522024 29.972433 29.413011 28.841418 28.256058 27.655993 27.040748 26.410094 25.763903 25.10203 24.424298 23.730518 23.020616 22.294784 21.553635 20.798385 20.030778 19.252894 18.466931 17.675323 16.880846 16.086417 15.294733 14.509357 13.736237 12.98402 12.263512 11.590492 10.984381 10.456134 10.012814 9.6626092 9.4167859 9.2886365
1e+30 1e+30 104.99819 104.84749 104.66122 104.43929 104.1819 103.88859 103.55858 103.19141 102.78734 102.34678 101.86983 101.35632 100.80586 100.21796 99.592098 98.927774 98.224597 97.482401 96.701429 95.882578 95.027779 94.140372 93.225478 92.290074 91.342509 90.391241 89.443068 88.501821 87.567962 86.63837 85.709033 84.776491 83.835181 82.880115 81.894171 80.893725 79.999565 78.888889 78.333333 77.777778 77.222222 77.073413 76.707604 76.302513 75.979406 75.610782 75.216463 74.825638 74.413142 73.978812 73.532176 73.079893 72.615124 72.135565 71.642956 71.138764 70.621389 70.090148 69.546246 68.992046 68.430118 67.862387 67.289471 66.710607 66.124928 65.532049 64.931883 64.324328 63.709205 63.086625 62.457274 61.822414 61.183589 60.542219 59.899648 59.257392 58.617292 57.981105 57.349584 56.722579 56.099468 55.479511 54.862007 54.246282 53.631519 53.01657 52.400029 51.781023 51.159568 50.53591 49.909404 49.280001 48.644741 48.005886 47.346604 46.666667 46.111111 46.708041 47.286898 47.718049 48.025638 48.236608 48.369001 48.435394 48.445132 48.405624 48.322904 48.201732 48.045734 47.857789 47.640375 47.395675 47.125504 46.831196 46.513573 46.173107 45.810276 45.425928 45.021502 44.59906 44.161108 43.710267 43.248891 42.778861 42.301547 41.817883 41.328486 40.833762 40.333991 39.829386 39.320133 38.806413 38.288424 37.766388 37.240562 36.711235 36.17873 35.643379 35.105504 34.56535 34.023016 33.478329 32.930692 32.378977 31.821532 31.25634 30.681362 30.094839 29.495443 28.882284 28.254826 27.612775 26.955999 26.284452 25.598161 24.897228 24.181927 23.452792 22.710701 21.956927 21.193164 20.421426 19.643949 18.863273 18.082237 17.303992 16.532077 15.770918 15.026595 14.307104 13.622438 12.984988 12.408286 11.903553 11.480422 11.148679 10.918725 10.800472
1e+30 1e+30 1e+30 104.69526 104.49303 104.26136 103.99765 103.69946 103.36438 102.99116 102.58071 102.13394 101.65098 101.1314 100.57443 99.979204 99.344781 98.670154 97.954332 97.19646 96.395997 95.553033 94.668806 93.746411 92.791602 91.813323 90.823409 89.834524 88.856621 87.89462 86.948732 86.011042 85.073991 84.135573 83.184693 82.22625 81.181501 80 79.444444 78.888889 78.717921 78.354818 77.958603 77.647234 77.293353 76.91748 76.55039 76.166515 75.765599 75.353754 74.925717 74.480824 74.022104 73.551852 73.06868 72.571724 72.061394 71.538226 71.002089 70.453165 69.892446 69.321526 68.742157 68.155746 67.56304 66.964132 66.358895 65.747282 65.129352 64.5052 63.874984 63.239065 62.598125 61.953158 61.305359 60.655958 60.006193 59.357337 58.710657 58.06718 57.427336 56.790947 56.157414 55.525989 54.895888 54.266294 53.636281 53.004754 52.370654 51.733529 51.094527 50.455298 49.81362 49.173975 48.524273 47.895038 47.222222 46.666667 47.287686 47.828588 48.30497 48.687378 48.976971 49.184536 49.321077 49.395915 49.416691 49.38971 49.3202 49.212446 49.069908 48.895431 48.691427 48.459961 48.202757 47.921195 47.616337 47.289039 46.940154 46.570738 46.182171 45.776179 45.354737 44.919875 44.473479 44.017151 43.552161 43.079466 42.599766 42.113572 41.621264 41.123136 40.619434 40.110375 39.59617 39.077028 38.553166 38.02481 37.492183 36.955497 36.414908 35.870482 35.322139 34.769575 34.212183 33.649011 33.078786 32.500034 31.911264 31.311138 30.69859 30.072864 29.433475 28.78017 28.112861 27.431624 26.736664 26.028313 25.307099 24.573794 23.829461 23.07547 22.313534 21.545669 20.774168 20.001592 19.230855 18.465246 17.708611 16.965602 16.242081 15.545324 14.884122 14.268722 13.710199 13.219332 12.806659 12.482959 12.25896 12.14405
1e+30 1e+30 1e+30 1e+30 104.30425 104.06548 103.79791 103.4972 103.15834 102.77815 102.3604 101.90728 101.41879 100.89386 100.33125 99.729661 99.087665 98.40371 97.676109 96.903114 96.083065 95.214734 94.297991 93.334873 92.331183 91.298191 90.253271 89.216807 88.204253 87.221299 86.271304 85.333051 84.390318 83.457126 82.491793 81.608679 80.555556 80 79.836567 79.521623 79.244723 78.914943 78.560131 78.213531 77.851088 77.473639 77.088142 76.689283 76.275657 75.848057 75.405157 74.946665 74.47356 73.986724 73.486005 72.971239 72.442655 71.900646 71.345561 70.777966 70.198828 69.609452 69.011231 68.405385 67.792791 67.173969 66.549229 65.918828 65.28303 64.642122 63.996456 63.34652 62.692986 62.036717 61.378717 60.720057 60.061828 59.405099 58.750814 58.09962 57.451641 56.80645 56.163251 55.521146 54.879263 54.236726 53.592564 52.945506 52.294299 51.637911 50.97971 50.32713 49.6658 49.028001 48.333333 47.777778 47.222222 47.940307 48.494369 48.96366 49.367023 49.699525 49.960339 50.153487 50.284853 50.360497 50.386006 50.366326 50.305752 50.207953 50.07603 49.912612 49.719951 49.499988 49.254375 48.984503 48.69155 48.376563 48.040569 47.6847 47.31026 46.918746 46.51178 46.09101 45.657992 45.214098 44.760476 44.298048 43.827534 43.349491 42.86435 42.372454 41.874084 41.369477 40.858844 40.342381 39.820265 39.292662 38.759712 38.221525 37.678151 37.129535 36.575492 36.015663 35.449471 34.876113 34.294587 33.703772 33.102546 32.489883 31.864947 31.227129 30.576056 29.911557 29.233646 28.54252 27.838539 27.122245 26.394355 25.655827 24.907877 24.151973 23.389866 22.623595 21.855467 21.088072 20.324324 19.567537 18.82153 18.090814 17.380809 16.697991 16.050002 15.445604 14.894472 14.406904 13.993923 13.667527 13.440111 13.322712
1e+30 1e+30 1e+30 1e+30 1e+30 103.84839 103.58131 103.28312 102.94363 102.55273 102.12546 101.66601 101.17302 100.64401 100.07706 99.470512 98.82251 98.13092 97.393289 96.606817 95.768396 94.87484 93.923543 92.913904 91.850043 90.744983 89.624669 88.525168 87.472279 86.464996 85.532167 84.609547 83.647105 82.76078 81.666667 81.111111 80.555556 80.506885 80.330282 80.066279 79.774371 79.450097 79.103437 78.745673 78.373834 77.987862 77.589273 77.176828 76.749692 76.307643 75.850161 75.377089 74.888734 74.385453 73.867358 73.334557 72.787339 72.226146 71.651542 71.0643 70.465448 69.856222 69.237923 68.611766 67.978766 67.339716 66.695219 66.045767 65.39181 64.733792 64.072189 63.40756 62.740566 62.071995 61.402728 60.733722 60.065962 59.400411 58.737883 58.078838 57.42315 56.769957 56.117997 55.466081 54.813291 54.158781 53.501753 52.840404 52.17312 51.494103 50.809269 50.157712 49.444444 48.888889 48.333333 48.810563 48.941665 49.327961 49.735831 50.114663 50.449943 50.73337 50.961383 51.134228 51.254362 51.325223 51.350516 51.333843 51.278536 51.187592 51.063656 50.909045 50.725791 50.515678 50.280263 50.020907 49.738819 49.435112 49.110875 48.76724 48.405432 48.026768 47.632629 47.224395 46.803381 46.370772 45.927598 45.474719 45.012836 44.542512 44.064198 43.578256 43.08498 42.584614 42.077362 41.563396 41.042862 40.515869 39.982493 39.442765 38.896651 38.344023 37.78464 37.218121 36.643932 36.06139 35.469684 34.867937 34.255277 33.630915 32.994206 32.344686 31.682099 31.006385 30.317674 29.616289 28.902751 28.177768 27.442237 26.697274 25.94422 25.184649 24.420352 23.653379 22.886041 22.120909 21.360847 20.609062 19.869181 19.145338 18.44235 17.765826 17.122279 16.519218 15.965188 15.469884 15.044603 14.7031 14.461249 14.333973
1e+30 1e+30 1e+30 1e+30 1e+30 1e+30 103.34582 103.06033 102.73035 102.31368 101.8727 101.40827 100.91329 100.38209 99.812481 99.202824 98.55094 97.854167 97.109308 96.312472 95.458852 94.54267 93.557418 92.497144 91.360106 90.157018 88.925217 87.736914 86.644723 85.584237 84.73279 83.875868 82.777778 82.222222 81.666667 81.573569 81.295077 81.091784 80.861355 80.588846 80.286403 79.957661 79.607856 79.241921 78.860724 78.464687 78.054243 77.629047 77.188631 76.732642 76.26075 75.772794 75.268829 74.748988 74.213406 73.662293 73.096004 72.515057 71.920162 71.312243 70.69244 70.062056 69.422462 68.774976 68.120788 67.460906 66.79615 66.127199 65.454645 64.779042 64.100947 63.420957 62.73972 62.057962 61.376476 60.696137 60.017886 59.342695 58.671457 58.004698 57.342162 56.68223 56.022699 55.361886 54.699041 54.033355 53.36526 52.691239 52.013686 51.306113 50.555556 50 49.444444 49.844203 49.902711 50.139472 50.355914 50.644043 50.956329 51.259217 51.534722 51.772631 51.967602 52.117689 52.223153 52.28553 52.307003 52.290001 52.236966 52.150234 52.031966 51.88413 51.708502 51.506681 51.280101 51.030054 50.757719 50.464203 50.150588 49.817966 49.467468 49.100271 48.717575 48.320563 47.910363 47.488012 47.054426 46.610394 46.156578 45.693522 45.221673 44.741392 44.252969 43.756641 43.252597 42.740986 42.221917 41.695458 41.161629 40.6204 40.071677 39.515281 38.950936 38.378262 37.796765 37.205848 36.60484 35.993029 35.369721 34.734307 34.086287 33.425332 32.751293 32.064223 31.364386 30.652234 29.928437 29.193866 28.449578 27.696834 26.937101 26.172033 25.403484 24.633503 23.864387 23.098657 22.339077 21.588671 20.850755 20.128978 19.427418 18.750686 18.104074 17.493784 16.927155 16.412839 15.961513 15.589004 15.317812 15.167965
1e+30 1e+30 1e+30 1e+30 1e+30 1e+30 1e+30 102.83205 102.55378 102.04894 101.59341 101.13111 100.63979 100.10859 99.537955 98.927356 98.274258 97.575507 96.827306 96.024881 95.161864 94.229572 93.216298 92.107123 90.886191 89.547745 88.132284 86.802554 85.735431 84.444444 83.888889 83.333333 82.777778 82.691856 82.402081 82.171508 81.909365 81.653799 81.384512 81.09137 80.774774 80.436292 80.078395 79.703426 79.312442 78.905897 78.483969 78.046486 77.593124 77.123534 76.637402 76.134521 75.614804 75.078259 74.524986 73.955209 73.36932 72.76791 72.151803 71.522069 70.880008 70.227092 69.564873 68.894876 68.218501 67.536963 66.851265 66.162221 65.47052 64.776779 64.081597 63.385592 62.689388 61.993646 61.299073 60.606463 59.916745 59.231016 58.550542 57.876324 57.208557 56.544101 55.878681 55.209718 54.537634 53.860341 53.1847 52.495607 51.834267 51.111111 50.555556 50.868859 50.900409 51.090765 51.243832 51.438701 51.648471 51.885963 52.136221 52.381156 52.607098 52.804834 52.968709 53.095781 53.18504 53.236754 53.251979 53.232199 53.179098 53.094415 52.979847 52.837009 52.667412 52.472451 52.253416 52.011496 51.747804 51.463399 51.159309 50.836563 50.496199 50.139271 49.766831 49.379911 48.979491 48.566481 48.141697 47.705854 47.25956 46.80333 46.337587 45.862676 45.378875 44.886402 44.385422 43.876058 43.358385 42.832431 42.298176 41.755542 41.204387 40.644497 40.075575 39.497243 38.909039 38.310425 37.700823 37.079639 36.446301 35.80032 35.141321 34.469071 33.783524 33.084851 32.37342 31.649833 30.91491 30.169682 29.415379 28.653409 27.885345 27.112932 26.338053 25.562772 24.789348 24.020246 23.258114 22.505769 21.766161 21.042374 20.337633 19.6554 18.999542 18.374683 17.78679 17.242807 16.749621 16.323588 16.003035 15.802123
1e+30 1e+30 1e+30 1e+30 1e+30 1e+30 1e+30 1e+30 1e+30 101.68491 101.27088 100.83295 100.35619 99.824529 99.253396 98.644378 97.993242 97.296301 96.549517 95.747881 94.884151 93.947448 92.921063 91.77884 90.479773 88.965477 87.203611 85.555556 85 84.444444 84.317056 83.965752 83.584075 83.315432 83.028284 82.750989 82.467087 82.179558 81.881547 81.567353 81.235012 80.884332 80.516012 80.130955 79.729709 79.312484 78.879258 78.429821 77.963849 77.480965 76.980809 76.463087 75.927602 75.374254 74.803068 74.214235 73.60815 72.985452 72.347067 71.694223 71.02843 70.351425 69.665054 68.971143 68.27137 67.567175 66.859715 66.149891 65.438424 64.725943 64.013062 63.300405 62.588575 61.878143 61.169695 60.463879 59.761605 59.064072 58.373357 57.69149 57.021637 56.35693 55.688204 55.010676 54.331435 53.635674 52.967592 52.222222 51.666667 51.111111 51.652849 51.969472 52.147564 52.324609 52.493145 52.67302 52.863302 53.065115 53.271437 53.472092 53.657686 53.820899 53.956624 54.061694 54.134482 54.174483 54.181976 54.157734 54.102833 54.018496 53.906011 53.766663 53.601699 53.412311 53.19963 52.964727 52.708621 52.432293 52.136697 51.822783 51.491497 51.143779 50.780561 50.402748 50.0112 49.606715 49.190019 48.761754 48.322471 47.872642 47.41266 46.942843 46.463446 45.974661 45.476633 44.969448 44.453148 43.927727 43.393125 42.849226 42.295851 41.73276 41.159641 40.576114 39.981736 39.37601 38.758416 38.128426 37.485557 36.829389 36.159625 35.476119 34.778906 34.068243 33.344624 32.60878 31.861695 31.104587 30.338858 29.566083 28.787959 28.006303 27.223033 26.440196 25.660003 24.884864 24.117366 23.360148 22.615773 21.886711 21.175313 20.483725 19.814021 19.168631 18.552503 17.971981 17.420586 16.90268 16.518603 16.185378
1e+30 1e+30 1e+30 1e+30 1e+30 1e+30 1e+30 1e+30 1e+30 1e+30 100.92226 100.52365 100.07748 99.529943 98.956712 98.353529 97.708031 97.016935 96.276577 95.482972 94.629391 93.704999 92.69166 91.557395 90.238586 88.580771 86.111111 85.555556 85.529495 85.209727 84.919233 84.578534 84.227327 83.907482 83.594639 83.28711 82.97846 82.665796 82.344768 82.011479 81.66359 81.300004 80.920376 80.524698 80.11297 79.685071 79.240769 78.779717 78.301501 77.805674 77.29178 76.759416 76.208258 75.638081 75.048799 74.440516 73.81359 73.168674 72.506781 71.829313 71.13806 70.435119 69.722765 69.003259 68.278653 67.550642 66.820516 66.089187 65.357323 64.625491 63.894291 63.164377 62.436349 61.710648 60.987673 60.267744 59.551708 58.840299 58.137321 57.444629 56.779569 56.123777 55.456524 54.763349 54.091752 53.333333 52.777778 52.222222 52.61968 52.674517 52.92526 53.158611 53.345758 53.516952 53.681109 53.846925 54.016592 54.189751 54.362318 54.528092 54.680657 54.814454 54.925196 55.009896 55.06671 55.094722 55.093708 55.063935 55.006004 54.920732 54.809049 54.671943 54.51042 54.325473 54.118076 53.88917 53.639668 53.370456 53.082406 52.776376 52.453221 52.113779 51.758877 51.389311 51.005836 50.609155 50.19991 49.778669 49.34593 48.902115 48.447576 47.982599 47.50741 47.022175 46.527004 46.021957 45.507042 44.982217 44.447387 43.902401 43.34705 42.78107 42.204132 41.615851 41.01579 40.403476 39.778412 39.140114 38.488126 37.822077 37.141704 36.4469 35.737765 35.014621 34.278066 33.52898 32.768521 31.998115 31.21939 30.434103 29.644115 28.851305 28.057597 27.264981 26.4756 25.691847 24.916338 24.151668 23.400071 22.663399 21.943176 21.240162 20.554188 19.883338 19.232619 18.622031 18.008099 17.297977 16.933278 1e+30
1e+30 1e+30 1e+30 1e+30 1e+30 1e+30 1e+30 1e+30 1e+30 1e+30 1e+30 100.21189 99.850139 99.211049 98.63999 98.054996 97.418417 96.736824 96.006887 95.228027 94.395434 93.501484 92.53316 91.470489 90.286402 88.957892 87.553093 86.755072 86.302795 85.895713 85.521564 85.151831 84.7892 84.442537 84.105686 83.774365 83.443865 83.110399 82.770261 82.420219 82.057893 81.68174 81.290816 80.884521 80.462417 80.024075 79.569033 79.096787 78.606782 78.098448 77.571214 77.024534 76.457927 75.871004 75.263521 74.635443 73.98702 73.318868 72.632058 71.92818 71.209366 70.478217 69.737619 68.990465 68.23933 67.486221 66.732509 65.979004 65.226172 64.474393 63.724222 62.976451 62.231782 61.490416 60.752592 60.017698 59.287177 58.558092 57.841001 57.120132 56.478224 55.85208 55.200762 54.444444 53.888889 53.333333 53.693333 53.70404 53.865321 53.992012 54.165062 54.343949 54.509897 54.666327 54.817413 54.966973 55.116385 55.264975 55.409986 55.5473 55.672395 55.781067 55.869817 55.935989 55.977753 55.994002 55.984208 55.948298 55.88653 55.79939 55.68752 55.551654 55.392579 55.211105 55.008051 54.784226 54.540434 54.277465 53.996096 53.697096 53.381227 53.049236 52.701851 52.339775 51.96367 51.574154 51.171789 50.757077 50.330458 49.892305 49.442927 48.982574 48.51143 48.029636 47.537267 47.034349 46.520859 45.996721 45.46181 44.915943 44.358885 43.790346 43.209979 42.617383 42.012118 41.393713 40.761669 40.115506 39.454776 38.779101 38.088219 37.382032 36.660645 35.924429 35.174063 34.410566 33.635309 32.849972 32.056467 31.25682 30.453072 29.647197 28.841067 28.03653 27.235574 26.440592 25.654451 24.880101 24.119452 23.373644 22.643825 21.929549 21.229224 20.52793 19.822621 19.225379 18.641818 1e+30 1e+30 1e+30
1e+30 1e+30 1e+30 1e+30 1e+30 1e+30 1e+30 1e+30 1e+30 1e+30 1e+30 1e+30 1e+30 98.774126 98.287207 97.758042 97.123813 96.455056 95.736124 94.976829 94.172839 93.322325 92.419001 91.455002 90.428633 89.361287 88.338302 87.558858 86.980878 86.498737 86.069489 85.668029 85.285125 84.917791 84.561199 84.2108 83.862246 83.511694 83.155695 82.79127 82.416051 82.028265 81.626626 81.210166 80.778114 80.329785 79.864509 79.381609 78.880389 78.360129 77.820098 77.259588 76.677918 76.07449 75.44884 74.800716 74.130177 73.437717 72.724396 71.991976 71.243002 70.480755 69.709017 68.931639 68.151964 67.372394 66.594287 65.818141 65.043952 64.271676 63.50174 62.735417 61.973905 61.216627 60.464572 59.713275 58.971208 58.213883 57.498445 56.666667 56.111111 55.555556 55 54.444444 54.80323 54.788115 54.908191 54.985281 55.095543 55.213147 55.349019 55.492213 55.633543 55.771037 55.905238 56.037161 56.166996 56.293775 56.41535 56.528726 56.630558 56.717603 56.787016 56.836492 56.864315 56.869321 56.850823 56.808522 56.742429 56.652783 56.539993 56.40458 56.247143 56.068327 55.868805 55.64926 55.410387 55.152877 54.877414 54.58468 54.275348 53.950078 53.60951 53.25426 52.884909 52.501996 52.106012 51.697392 51.276521 50.843723 50.399261 49.943342 49.476119 48.997689 48.508097 48.007336 47.495349 46.972027 46.437213 45.890695 45.332213 44.761454 44.178054 43.58159 42.971599 42.347594 41.709066 41.055492 40.386395 39.70136 39.000069 38.282381 37.548368 36.798393 36.033193 35.253926 34.46219 33.660016 32.849703 32.033657 31.214168 30.393329 29.572946 28.754496 27.939544 27.130482 26.330776 25.544811 24.773975 24.017883 23.278934 22.554986 21.855219 21.126554 20.254627 19.764944 1e+30 1e+30 1e+30 1e+30
1e+30 1e+30 1e+30 1e+30 1e+30 1e+30 1e+30 1e+30 1e+30 1e+30 1e+30 1e+30 1e+30 1e+30 97.926675 97.516148 96.813736 96.173458 95.455725 94.72033 93.94676 93.145976 92.315509 91.451881 90.561844 89.670308 88.829964 88.111149 87.513109 86.998881 86.539638 86.115655 85.715481 85.332295 84.960532 84.595402 84.232641 83.868465 83.499577 83.123136 82.736792 82.338662 81.927262 81.501406 81.060095 80.602443 80.127613 79.634764 79.123046 78.591584 78.039476 77.465808 76.869669 76.250193 75.606622 74.938395 74.24525 73.527417 72.78582 72.022317 71.239906 70.442775 69.636048 68.825096 68.014481 67.207092 66.404088 65.605312 64.809809 64.01661 63.225628 62.439552 61.661779 60.887611 60.125788 59.349611 58.620483 57.777778 57.222222 56.666667 56.776518 56.556073 56.259116 56.018002 56.041483 56.05771 56.116031 56.183349 56.268428 56.366016 56.475648 56.592337 56.711018 56.829037 56.945336 57.059434 57.170657 57.277771 57.378905 57.471688 57.553508 57.621779 57.674154 57.708649 57.723698 57.71815 57.691242 57.642539 57.571882 57.479327 57.365096 57.229539 57.073095 56.896263 56.699585 56.48363 56.248985 55.996244 55.726006 55.438865 55.135411 54.816221 54.481857 54.132853 53.769717 53.392916 53.002875 52.59997 52.184525 51.756816 51.317064 50.865429 50.402026 49.926914 49.440104 48.941555 48.431177 47.908829 47.374323 46.827424 46.267843 45.695237 45.109213 44.509333 43.895113 43.266019 42.621506 41.961004 41.283958 40.589868 39.878325 39.14906 38.402052 37.637595 36.856404 36.059746 35.24951 34.428186 33.598672 32.763934 31.926618 31.089 30.252888 29.418958 28.587622 27.761005 26.943344 26.144374 25.363736 24.594963 23.849041 23.106238 22.460087 21.818451 1e+30 1e+30 1e+30 1e+30 1e+30 1e+30
1e+30 1e+30 1e+30 1e+30 1e+30 1e+30 1e+30 1e+30 1e+30 1e+30 1e+30 1e+30 1e+30 1e+30 1e+30 1e+30 96.391527 95.919319 95.14298 94.451998 93.697897 92.949303 92.195182 91.425177 90.646557 89.878138 89.150077 88.492684 87.911522 87.394024 86.92452 86.489465 86.078849 85.685366 85.303241 84.927659 84.554454 84.179967 83.801036 83.414927 83.019328 82.612335 82.19237 81.758117 81.308435 80.842299 80.35874 79.856788 79.335447 78.793682 78.230409 77.644488 77.03474 76.399977 75.739059 75.050981 74.335004 73.590875 72.819143 72.021557 71.201516 70.364374 69.517295 68.668211 67.823769 66.987403 66.159653 65.339194 64.523348 63.709312 62.894588 62.085371 61.296034 60.496251 59.751343 58.888889 58.333333 57.777778 57.922601 57.784265 57.72224 57.583101 57.41239 57.276967 57.236991 57.235212 57.264877 57.313659 57.3788 57.456837 57.545215 57.640466 57.739148 57.838752 57.937633 58.034587 58.128432 58.217754 58.30082 58.37562 58.440006 58.491849 58.529173 58.550255 58.553677 58.538344 58.503463 58.448521 58.373245 58.277556 58.161539 58.025402 57.869449 57.694056 57.499649 57.286693 57.055676 56.807103 56.541489 56.259347 55.961189 55.647517 55.318818 54.975557 54.61817 54.247059 53.862586 53.465072 53.054789 52.631958 52.196751 51.74929 51.289648 50.817848 50.333862 49.837614 49.328983 48.807797 48.273839 47.726843 47.166495 46.592429 46.004228 45.401425 44.7835 44.149881 43.499951 42.833069 42.148581 41.445841 40.724288 39.983476 39.223183 38.443521 37.645083 36.829148 35.997926 35.154553 34.302849 33.446778 32.589367 31.733142 30.88063 30.030822 29.180968 28.33255 27.487184 26.67559 25.891624 25.099188 24.366043 23.510836 23.010362 1e+30 1e+30 1e+30 1e+30 1e+30 1e+30 1e+30
1e+30 1e+30 1e+30 1e+30 1e+30 1e+30 1e+30 1e+30 1e+30 1e+30 1e+30 1e+30 1e+30 1e+30 1e+30 1e+30 1e+30 1e+30 94.694887 94.196806 93.39353 92.708147 92.040742 91.357071 90.67104 89.995627 89.34955 88.747977 88.196251 87.691153 87.224916 86.788846 86.375076 85.977067 85.589421 85.207569 84.827562 84.445941 84.059699 83.666225 83.263284 82.849002 82.421784 81.980263 81.523228 81.04958 80.558256 80.048189 79.518264 78.967287 78.393986 77.796986 77.174814 76.525906 75.848654 75.141462 74.402898 73.631926 72.828313 71.993253 71.130227 70.245907 69.350541 68.456676 67.574976 66.709092 65.857912 65.018445 64.185067 63.352687 62.508034 61.661315 60.890729 60 59.444444 58.888889 59.021017 58.888471 58.856159 58.775547 58.695069 58.591706 58.480379 58.390487 58.34431 58.331272 58.34461 58.377608 58.42627 58.487312 58.557905 58.635167 58.716356 58.799189 58.881857 58.962844 59.04072 59.113983 59.180987 59.239954 59.28904 59.32643 59.350422 59.359508 59.352402 59.328074 59.285738 59.224836 59.14502 59.046117 58.928106 58.791085 58.635249 58.460866 58.268264 58.057814 57.829918 57.584997 57.32349 57.045835 56.752473 56.443834 56.120338 55.782383 55.430343 55.064561 54.685339 54.292944 53.887597 53.469473 53.038693 52.595338 52.139439 51.670978 51.18989 50.696065 50.189347 49.669537 49.136388 48.589611 48.028865 47.453758 46.863843 46.258633 45.637565 45.000026 44.345331 43.672735 42.981445 42.27064 41.539518 40.787373 40.013683 39.218209 38.401219 37.563809 36.708459 35.839238 34.961366 34.080935 33.200919 32.323568 31.455633 30.592703 29.722876 28.851029 27.94723 27.129162 26.377949 25.494111 24.95513 1e+30 1e+30 1e+30 1e+30 1e+30 1e+30 1e+30 1e+30 1e+30
1e+30 1e+30 1e+30 1e+30 1e+30 1e+30 1e+30 1e+30 1e+30 1e+30 1e+30 1e+30 1e+30 1e+30 1e+30 1e+30 1e+30 1e+30 1e+30 1e+30 92.92128 92.399028 91.852576 91.241359 90.634908 90.033756 89.454488 88.903427 88.384338 87.899398 87.445137 87.015916 86.605544 86.208412 85.819814 85.435649 85.052294 84.666559 84.275619 83.877004 83.468597 83.048612 82.615505 82.167916 81.704633 81.224532 80.726512 80.209442 79.672112 79.113201 78.53125 77.924651 77.291618 76.630178 75.938177 75.213307 74.453191 73.655606 72.818916 71.942911 71.030236 70.08848 69.132283 68.182973 67.260366 66.366072 65.494453 64.641597 63.795792 62.958345 62.073542 61.111111 60.555556 60 60.102826 59.960334 59.923397 59.848929 59.788016 59.716696 59.640797 59.558283 59.47694 59.410299 59.368496 59.35097 59.354691 59.375897 59.411363 59.458238 59.513926 59.575931 59.641915 59.709794 59.777765 59.844215 59.907625 59.966475 60.019196 60.06417 60.099768 60.124404 60.136582 60.134955 60.118358 60.085824 60.036588 59.970077 59.885895 59.783803 59.663699 59.525597 59.369606 59.195905 59.004736 58.79639 58.571188 58.329482 58.071637 57.798026 57.509024 57.204998 56.886306 56.553288 56.206261 55.845506 55.471271 55.083776 54.683188 54.269641 53.843208 53.403928 52.951787 52.486731 52.008655 51.517415 51.012817 50.494631 49.962579 49.416344 48.855571 48.27986 47.688739 47.081687 46.458111 45.817338 45.158612 44.481087 43.783805 43.065726 42.325754 41.562809 40.775942 39.964404 39.127761 38.266403 37.382863 36.482553 35.572414 34.664647 33.759773 32.854562 31.975612 31.111444 30.216768 29.351435 28.271524 27.465856 26.946878 1e+30 1e+30 1e+30 1e+30 1e+30 1e+30 1e+30 1e+30 1e+30 1e+30 1e+30
1e+30 1e+30 1e+30 1e+30 1e+30 1e+30 1e+30 1e+30 1e+30 1e+30 1e+30 1e+30 1e+30 1e+30 1e+30 1e+30 1e+30 1e+30 1e+30 1e+30 1e+30 92.064113 91.679188 91.070887 90.543473 89.999974 89.481222 88.976884 88.488301 88.026956 87.590299 87.174136 86.772764 86.381208 85.995771 85.612929 85.229418 84.842396 84.449235 84.047595 83.635511 83.211361 82.773714 82.321262 81.852845 81.367389 80.863811 80.340956 79.797548 79.232157 78.643167 78.028748 77.386816 76.714997 76.010561 75.270392 74.490958 73.668395 72.798833 71.879236 70.909332 69.895499 68.857145 67.832566 66.867442 65.950376 65.062238 64.2077 63.348153 62.561347 61.666667 61.111111 61.157007 61.003878 60.956551 60.876211 60.813308 60.745827 60.680288 60.612434 60.543144 60.473696 60.408802 60.355275 60.318408 60.299424 60.297285 60.309925 60.335045 60.370354 60.413631 60.462723 60.515583 60.570316 60.625197 60.678627 60.729087 60.775089 60.815145 60.847763 60.871467 60.884838 60.886547 60.875374 60.850256 60.810284 60.754724 60.683 60.594691 60.489511 60.367303 60.228013 60.07168 59.898414 59.708385 59.501814 59.278957 59.040098 58.785542 58.515601 58.230591 57.930823 57.616597 57.288199 56.945894 56.589916 56.220463 55.8377 55.441753 55.032702 54.610585 54.175393 53.727072 53.265521 52.790598 52.30212 51.79986 51.283561 50.752928 50.20762 49.647249 49.071395 48.479585 47.871268 47.245837 46.602589 45.9407 45.259208 44.556988 43.832728 43.084954 42.312149 41.512862 40.685703 39.829014 38.941134 38.024012 37.08568 36.13107 35.195442 34.268924 33.309247 32.430781 31.610667 30.631282 30.01637 1e+30 1e+30 1e+30 1e+30 1e+30 1e+30 1e+30 1e+30 1e+30 1e+30 1e+30 1e+30 1e+30 1e+30
1e+30 1e+30 1e+30 1e+30 1e+30 1e+30 1e+30 1e+30 1e+30 1e+30 1e+30 1e+30 1e+30 1e+30 1e+30 1e+30 1e+30 1e+30 1e+30 1e+30 1e+30 1e+30 1e+30 90.769521 90.418153 89.891458 89.443542 88.98459 88.515 88.079824 87.664944 87.267572 86.880156 86.497886 86.11915 85.740877 85.360064 84.974393 84.581354 84.178636 83.764493 83.337621 82.896731 82.440577 81.968097 81.478363 80.97038 80.443013 79.894957 79.324706 78.730514 78.110365 77.461917 76.782439 76.068684 75.316742 74.52185 73.678187 72.778795 71.815871 70.782356 69.677039 68.518238 67.372707 66.376462 65.455756 64.546425 63.728809 62.777778 62.222222 61.666667 61.865502 61.907514 61.851949 61.793273 61.724654 61.657803 61.59079 61.524885 61.459614 61.395658 61.334564 61.279301 61.233599 61.200448 61.18104 61.175108 61.181479 61.198542 61.224507 61.257521 61.295742 61.337369 61.380685 61.424074 61.466004 61.505007 61.539649 61.568526 61.590257 61.603493 61.606939 61.599392 61.579741 61.547005 61.500337 61.43903 61.362517 61.270364 61.162258 61.038 60.897486 60.740701 60.567697 60.378588 60.173536 59.95274 59.716429 59.464849 59.19826 58.916926 58.621111 58.311066 57.987028 57.649212 57.297805 56.932965 56.55481 56.163423 55.758836 55.341045 54.909996 54.465592 54.007688 53.536103 53.050616 52.550965 52.036856 51.507966 50.963945 50.404395 49.828875 49.236918 48.62797 48.001401 47.35649 46.692388 46.008038 45.302177 44.573209 43.819181 43.037973 42.227664 41.386525 40.51144 39.595092 38.636347 37.655052 36.620741 35.667092 34.761197 33.632659 32.777523 32.219107 1e+30 1e+30 1e+30 1e+30 1e+30 1e+30 1e+30 1e+30 1e+30 1e+30 1e+30 1e+30 1e+30 1e+30 1e+30 1e+30
